# .PCD v0.7 - Point Cloud Data file format
VERSION 0.7
FIELDS x y z rgb
SIZE 4 4 4 4
TYPE F F F F
COUNT 1 1 1 1
WIDTH 946
HEIGHT 1
VIEWPOINT 0 0 0 1 0 0 0
POINTS 946
DATA ascii
0.099904992 0.07628677 -0.021198796 1.0703161e-038
0.096636564 0.080308713 -0.030573362 1.0245777e-038
0.1221249 0.075728245 -0.023483967 1.0611684e-038
0.14562707 0.07562007 -0.024063241 1.0611684e-038
0.15525694 0.07499259 -0.025310641 1.0520208e-038
0.15525649 0.087737054 -0.029478051 1.0337254e-038
-0.10788901 0.10117254 -0.026604068 1.0428731e-038
-0.04696545 0.09762001 -0.035902459 1.0062824e-038
-0.052117158 0.1047874 -0.023325495 1.0611684e-038
0.096747212 0.10424443 -0.030400189 1.0245777e-038
0.15525521 0.099938452 -0.028307941 1.0428731e-038
-0.10788858 0.13153824 -0.01893089 1.0794638e-038
-0.04581251 0.11947037 -0.038002189 9.971347e-039
-0.051504463 0.13156344 -0.025848152 1.0520208e-038
0.097542785 0.13155264 -0.028286781 1.0428731e-038
0.15525618 0.11590677 -0.027611839 1.0428731e-038
-0.10786347 0.13156869 -0.026825804 1.0428731e-038
-0.087466821 0.13157271 -0.028030414 1.0428731e-038
-0.064353675 0.13157263 -0.030756451 1.0245777e-038
0.097828329 0.13157219 -0.02769547 1.0428731e-038
0.11656074 0.13157125 -0.028263586 1.0428731e-038
0.14165209 0.13157092 -0.027157182 1.0428731e-038
0.15525831 0.13156702 -0.028389294 1.0428731e-038
-0.10786393 -0.13157089 -0.0048737084 1.1526452e-038
-0.10788789 -0.131542 -0.014734651 1.0977591e-038
-0.087457709 -0.1315732 -0.010717306 1.1252022e-038
-0.067547724 -0.13157424 -0.017346583 1.0886115e-038
-0.054742381 -0.13157335 -0.011307052 1.1160545e-038
0.099914663 -0.13155706 -0.021166192 1.0703161e-038
0.10198124 -0.13157319 -0.011064988 1.1160545e-038
0.11714026 -0.13157326 -0.0056436248 1.1434975e-038
0.14165621 -0.13157092 -0.0091740517 1.1252022e-038
0.15525898 -0.13156779 -0.015388791 1.0977591e-038
0.15525717 -0.11596245 -0.011019909 1.1160545e-038
-0.10788824 -0.10132671 -0.0085892919 1.1343498e-038
-0.055234227 -0.11540915 -0.0073865885 1.1343498e-038
0.10066016 -0.095020749 -0.018293129 1.0886115e-038
0.10248053 -0.11325645 -0.0080982028 1.1343498e-038
0.15525556 -0.10053369 -0.0082861362 1.1343498e-038
-0.10789107 -0.086147219 -0.000586865 1.1709406e-038
-0.055203825 -0.078915522 -0.0077668233 1.1343498e-038
0.10097647 -0.077267572 -0.01672297 1.0886115e-038
0.10287145 -0.079152845 -0.0039086347 1.1526452e-038
0.15525451 -0.087508857 -0.0078048492 1.1343498e-038
-0.1078902 -0.079074368 -0.0060423068 1.1434975e-038
-0.089888655 -0.078773431 -0.010204677 1.1252022e-038
-0.068118013 -0.078929104 -0.0092096301 1.1252022e-038
0.11452772 -0.078820854 -0.0096770357 1.1252022e-038
0.1439614 -0.078918487 -0.0083123324 1.1343498e-038
0.15525407 -0.078469224 -0.010975976 1.1160545e-038
-0.10788961 0.079219848 -0.0040888051 1.1526452e-038
-0.10788883 0.086216524 -0.015494266 1.0977591e-038
-0.089865327 0.078560159 -0.010946594 1.1160545e-038
-0.065592468 0.077681057 -0.015591869 1.0977591e-038
-0.05513151 0.078757726 -0.0081747156 1.1343498e-038
0.10039491 0.086775728 -0.019483084 1.0794638e-038
0.10222931 0.078481853 -0.0097443247 1.1252022e-038
0.11591378 0.079213142 -0.0059492942 1.1434975e-038
0.14476117 0.078837596 -0.0083169118 1.1343498e-038
0.1552566 0.07829465 -0.011829655 1.1160545e-038
0.15525584 0.086667493 -0.008902356 1.1252022e-038
-0.10788845 0.10126995 -0.0087255938 1.1343498e-038
-0.055161968 0.11123212 -0.0087015415 1.1343498e-038
0.10065717 0.11169145 -0.01847842 1.0886115e-038
0.10265056 0.097263783 -0.0061567929 1.1434975e-038
0.15525515 0.099956445 -0.0092534721 1.1252022e-038
-0.10788824 0.13153812 -0.000780206 1.1709406e-038
-0.055371784 0.13157143 -0.0060249912 1.1434975e-038
0.1004217 0.13157333 -0.018949073 1.0794638e-038
0.10295401 0.13156861 -0.0041410285 1.1526452e-038
0.15525639 0.11594997 -0.0095209442 1.1252022e-038
-0.10786369 0.13156866 -0.0087012388 1.1343498e-038
-0.087277383 0.13157286 -0.0096241673 1.1252022e-038
-0.068535216 0.13157402 -0.010312545 1.1252022e-038
0.11544637 0.13157335 -0.011336328 1.1160545e-038
0.14213575 0.13157101 -0.0093890242 1.1252022e-038
0.15525849 0.13156742 -0.010331847 1.1252022e-038
-0.10786366 -0.13157095 0.013301752 1.2349743e-038
-0.10788807 -0.13154233 0.00342423 1.1892359e-038
-0.087051056 -0.13157311 0.0077519678 1.2075313e-038
-0.069241934 -0.13157423 -9.2183669e-005 1.1709406e-038
-0.055384822 -0.13157213 0.0057037692 1.1983836e-038
0.11552266 -0.1315726 0.018629773 1.2624173e-038
0.10295341 -0.13156989 0.0043612509 1.1892359e-038
0.1413514 -0.13157138 0.010488399 1.2166789e-038
0.15525909 -0.13156791 0.002800589 1.1800882e-038
0.15525714 -0.11599513 0.00706138 1.2075313e-038
-0.10788828 -0.1012679 0.0095415097 1.2166789e-038
-0.055178795 -0.11142366 0.0085413707 1.2075313e-038
0.10261355 -0.096710883 0.0065543829 1.1983836e-038
0.15525593 -0.10048767 0.008245307 1.2075313e-038
-0.10788758 -0.085281894 0.017031467 1.2532696e-038
-0.055256162 -0.078896523 0.0071643 1.2075313e-038
0.10211182 -0.078381717 0.010602964 1.2166789e-038
0.15525487 -0.086940624 0.0079710456 1.2075313e-038
-0.10788922 -0.078389041 0.011787944 1.2258266e-038
-0.089171551 -0.079023972 0.0078424541 1.2075313e-038
-0.066207178 -0.078903869 0.0083801094 1.2075313e-038
0.11761342 -0.078763068 0.01045586 1.2166789e-038
0.14274687 -0.078911461 0.0083627412 1.2075313e-038
0.15525462 -0.079062983 0.004916524 1.1983836e-038
-0.10789412 0.078065664 0.013623407 1.2349743e-038
-0.10789184 0.086220287 0.0023801571 1.1800882e-038
-0.088999733 0.078973025 0.0077392706 1.2075313e-038
-0.06748829 0.079296686 0.0016704245 1.1800882e-038
-0.05526381 0.078970447 0.0067984341 1.1983836e-038
0.11643554 0.077961691 0.014711586 1.244122e-038
0.10279222 0.07912448 0.0046629203 1.1892359e-038
0.14357409 0.078797475 0.0087480666 1.2075313e-038
0.15525559 0.07909929 0.0022550658 1.1800882e-038
0.15525502 0.086536884 0.0065475013 1.1983836e-038
-0.10788743 0.10112079 0.0093304459 1.2166789e-038
-0.055242036 0.11522832 0.0072906683 1.2075313e-038
0.10242597 0.11337876 0.0084365038 1.2075313e-038
0.15525478 0.10012769 0.0076178634 1.2075313e-038
-0.10788764 0.13153778 0.017390333 1.2532696e-038
-0.054792296 0.13157171 0.011009475 1.2258266e-038
0.10192215 0.13157354 0.011489222 1.2258266e-038
0.15525647 0.11590112 0.008537529 1.2075313e-038
-0.10786359 0.13156852 0.0096157733 1.2166789e-038
-0.086085573 0.13157254 0.0096681537 1.2166789e-038
-0.069383413 0.13157345 0.0051034573 1.1983836e-038
0.11823293 0.13157308 0.015240135 1.244122e-038
0.14063394 0.13157095 0.0086616995 1.2075313e-038
0.15525845 0.13156746 0.0078709545 1.2075313e-038
-0.10786316 -0.13157092 0.031518381 1.3173034e-038
-0.10788817 -0.1315424 0.021579189 1.271565e-038
-0.086918309 -0.13157298 0.026911093 1.299008e-038
-0.064164177 -0.13157281 0.021184139 1.271565e-038
-0.051585581 -0.13155971 0.02561485 1.2898603e-038
0.10034351 -0.13157059 0.019259492 1.2624173e-038
0.10306218 -0.1315726 0.031860564 1.3173034e-038
0.097523086 -0.13156788 0.028332874 1.299008e-038
0.12339352 -0.13157205 0.035299622 1.3355987e-038
0.14132029 -0.13157114 0.028525293 1.3081557e-038
0.15525889 -0.13156816 0.021049416 1.271565e-038
0.15525696 -0.11597226 0.025178129 1.2898603e-038
-0.10788871 -0.10110248 0.027434235 1.299008e-038
-0.052162681 -0.10502403 0.02319622 1.2807127e-038
0.10057194 -0.11188506 0.018754667 1.2624173e-038
0.096799903 -0.1044405 0.030298626 1.3081557e-038
0.15525602 -0.10009421 0.025915638 1.2898603e-038
-0.1078874 -0.083254576 0.034018841 1.326451e-038
-0.052655809 -0.076386057 0.02105635 1.271565e-038
0.10034028 -0.086075522 0.019593412 1.2624173e-038
0.096623242 -0.080037042 0.030605413 1.3173034e-038
0.15525623 -0.087120198 0.026250767 1.2898603e-038
-0.10788567 -0.074192062 0.027784389 1.299008e-038
-0.091907792 -0.075453363 0.024425028 1.2807127e-038
-0.05106128 -0.075057447 0.025752245 1.2898603e-038
0.099078976 -0.075648114 0.023914322 1.2807127e-038
0.12607709 -0.073772907 0.028952345 1.3081557e-038
0.15524562 -0.075063311 0.025559746 1.2898603e-038
0.15525946 -0.077237599 0.016731376 1.2532696e-038
-0.10789075 0.074333437 0.026985921 1.299008e-038
-0.10788965 0.085190184 0.020349974 1.2624173e-038
-0.092692301 0.075155117 0.025246168 1.2898603e-038
-0.065135799 0.076415993 0.021697005 1.271565e-038
-0.052477572 0.075953923 0.022270566 1.271565e-038
0.10079469 0.077087246 0.01753499 1.2532696e-038
0.097814143 0.074234396 0.027539983 1.299008e-038
0.098192558 0.086616047 0.026436385 1.2898603e-038
0.12114286 0.073324017 0.029704839 1.3081557e-038
0.15523791 0.075036116 0.025651759 1.2898603e-038
0.1552594 0.077787094 0.014162299 1.2349743e-038
0.15525503 0.087498844 0.022754051 1.2807127e-038
-0.10788757 0.10109083 0.027856667 1.299008e-038
-0.05241356 0.11663111 0.022061978 1.271565e-038
0.10063927 0.09500584 0.018381866 1.2532696e-038
0.096798673 0.10457755 0.030280152 1.3081557e-038
0.15525521 0.099734828 0.025640231 1.2898603e-038
-0.10788762 0.13154416 0.035579015 1.3355987e-038
-0.051001426 0.13156946 0.026266912 1.2898603e-038
0.099854372 0.13156344 0.02142198 1.271565e-038
0.095322244 0.13156793 0.033595342 1.326451e-038
0.1552563 0.11586371 0.026735106 1.299008e-038
-0.10786336 0.13156965 0.027829865 1.299008e-038
-0.087716788 0.13157219 0.026663752 1.299008e-038
-0.061313171 0.13157162 0.030080799 1.3081557e-038
0.1052277 0.13157298 0.026976224 1.299008e-038
0.12532069 0.13157383 0.032968517 1.326451e-038
0.14155799 0.13157053 0.028338941 1.299008e-038
0.15525827 0.13156697 0.026171438 1.2898603e-038
-0.10786258 -0.13157076 0.049705304 1.3996325e-038
-0.10788808 -0.13154234 0.039716333 1.3538941e-038
-0.087017767 -0.13157296 0.045900956 1.3813371e-038
-0.064515367 -0.1315729 0.043989569 1.3721894e-038
-0.045851797 -0.11884536 0.037942201 1.3447464e-038
-0.042526886 -0.13157244 0.04350489 1.3721894e-038
-0.03814112 -0.12372608 0.04937508 1.3996325e-038
0.098871648 -0.13157424 0.050818533 1.4087801e-038
0.091481164 -0.13157184 0.041046944 1.3630418e-038
0.1214239 -0.13157226 0.047537576 1.3904848e-038
0.14198758 -0.13157059 0.045355774 1.3813371e-038
0.15525864 -0.13156788 0.039182536 1.3538941e-038
0.15525658 -0.1159685 0.043483365 1.3721894e-038
-0.10788863 -0.10092238 0.04553555 1.3813371e-038
-0.047030434 -0.097655192 0.035790477 1.3355987e-038
-0.038883641 -0.1076452 0.048551269 1.3996325e-038
0.091178559 -0.095819756 0.041385125 1.3630418e-038
0.15525514 -0.10001706 0.046228547 1.3904848e-038
-0.10788716 -0.080224216 0.052687876 1.4179278e-038
-0.048274495 -0.080193944 0.032988254 1.326451e-038
-0.040880881 -0.08751516 0.045927245 1.3813371e-038
0.091960624 -0.076589577 0.039880242 1.3538941e-038
0.15525597 -0.0843876 0.050504941 1.4087801e-038
-0.10788839 -0.068451338 0.039575361 1.3538941e-038
-0.096188337 -0.069141939 0.038702562 1.3538941e-038
-0.064192846 -0.069130793 0.038701352 1.3538941e-038
-0.045235302 -0.068633758 0.039263614 1.3538941e-038
0.093982138 -0.07042446 0.036308642 1.3447464e-038
0.12067112 -0.068746626 0.03944407 1.3538941e-038
0.15525065 -0.067682199 0.041245416 1.3630418e-038
0.15525854 -0.072650187 0.044665884 1.3813371e-038
-0.10788988 0.067937545 0.040481079 1.3630418e-038
-0.10788938 0.082452565 0.040298145 1.3630418e-038
-0.10786002 0.068867519 0.03934193 1.3538941e-038
-0.074408039 0.069248766 0.038581658 1.3538941e-038
-0.047230184 0.088744745 0.035287581 1.3355987e-038
-0.046397544 0.070317931 0.03679147 1.3447464e-038
-0.041094273 0.079284392 0.045434643 1.3813371e-038
0.093629107 0.069950119 0.036812693 1.3447464e-038
0.09301392 0.087287873 0.038353935 1.3538941e-038
0.11393513 0.06898161 0.038780048 1.3538941e-038
0.13806695 0.068459466 0.039837267 1.3538941e-038
0.15525943 0.069480933 0.03782174 1.3447464e-038
0.15525602 0.081642129 0.046873514 1.3904848e-038
-0.10788797 0.1009145 0.047012422 1.3904848e-038
-0.047004133 0.11627364 0.035690211 1.3355987e-038
-0.039940793 0.096577488 0.047166422 1.3904848e-038
0.090400599 0.11396547 0.042678371 1.3721894e-038
0.15525506 0.099184327 0.044768117 1.3813371e-038
-0.10788754 0.13154355 0.053763766 1.4179278e-038
-0.045276381 0.13156576 0.038797263 1.3538941e-038
-0.040044267 0.1190303 0.046992265 1.3904848e-038
0.089867212 0.1315721 0.043236893 1.3721894e-038
0.15525605 0.11585695 0.044843793 1.3813371e-038
-0.1078631 0.13157065 0.045878589 1.3813371e-038
-0.086950414 0.13157222 0.044464342 1.3813371e-038
-0.061273474 0.1315711 0.046256509 1.3904848e-038
-0.037532125 0.13156718 0.050218653 1.4087801e-038
0.10104879 0.13157228 0.046798754 1.3904848e-038
0.12238589 0.1315725 0.045906957 1.3813371e-038
0.14204834 0.13157088 0.045965929 1.3813371e-038
0.15525791 0.13156678 0.044268664 1.3813371e-038
-0.10786164 -0.13157037 0.067876592 1.4911092e-038
-0.10788764 -0.13154209 0.057860702 1.4453708e-038
-0.087027714 -0.13157278 0.064098798 1.4728139e-038
-0.064349309 -0.1315735 0.062055625 1.4636662e-038
-0.044566687 -0.13157393 0.060136411 1.4545185e-038
-0.0297553 -0.11652523 0.058448702 1.4453708e-038
-0.032066904 -0.13157551 0.056233343 1.4362232e-038
-0.019412978 -0.13155599 0.066583149 1.4819615e-038
0.083089195 -0.13157488 0.052226614 1.4179278e-038
0.083848171 -0.13157499 0.067942917 1.4911092e-038
0.072556786 -0.13156646 0.0624584 1.4636662e-038
0.10387368 -0.131574 0.069090694 1.4911092e-038
0.11979805 -0.1315731 0.065480649 1.4728139e-038
0.14182654 -0.13157091 0.062886894 1.4636662e-038
0.15525827 -0.13156734 0.057231072 1.4362232e-038
0.15525591 -0.1159431 0.061766833 1.4636662e-038
-0.10788821 -0.10102095 0.063408591 1.4636662e-038
-0.030616596 -0.096694753 0.057675403 1.4362232e-038
-0.018605432 -0.10828743 0.067032263 1.4819615e-038
0.082957111 -0.11202303 0.052596707 1.4179278e-038
0.072625063 -0.10140391 0.062354714 1.4636662e-038
0.15525414 -0.10001439 0.065256119 1.4728139e-038
-0.1078881 -0.085768417 0.069293968 1.4911092e-038
-0.034109104 -0.074661709 0.054330613 1.4270755e-038
-0.020688998 -0.086661309 0.065692715 1.4819615e-038
0.083937153 -0.082520507 0.051496726 1.4087801e-038
0.073222466 -0.07447689 0.061775874 1.4636662e-038
0.15525422 -0.086981095 0.068170376 1.4911092e-038
-0.10788894 -0.060961381 0.05038977 1.4087801e-038
-0.10788857 -0.065003633 0.068722785 1.4911092e-038
-0.10786928 -0.06129637 0.05021235 1.4087801e-038
-0.07318677 -0.061068568 0.050427467 1.4087801e-038
-0.038128525 -0.062055808 0.04929791 1.3996325e-038
-0.031788457 -0.055399928 0.056352116 1.4362232e-038
-0.022200817 -0.066782542 0.064598165 1.4728139e-038
0.081461407 -0.057674807 0.054007109 1.4270755e-038
0.076020747 -0.052175302 0.059264723 1.4453708e-038
0.087578736 -0.063983947 0.046807688 1.3904848e-038
0.11471786 -0.061617497 0.049863093 1.3996325e-038
0.141675 -0.060031284 0.051607832 1.4087801e-038
0.15526058 -0.059844583 0.051633619 1.4087801e-038
0.15525649 -0.070006587 0.066516638 1.4819615e-038
-0.10788313 -0.051071476 0.060689516 1.4545185e-038
-0.085645542 -0.051786315 0.059933688 1.4545185e-038
-0.057593662 -0.051887605 0.059854478 1.4545185e-038
-0.02847115 -0.0524178 0.059351876 1.4453708e-038
-0.025474431 -0.048869018 0.062040664 1.4636662e-038
0.077823095 -0.054448694 0.057510227 1.4362232e-038
0.10691518 -0.052456327 0.059434708 1.4453708e-038
0.13214514 -0.050459482 0.061094988 1.4545185e-038
0.15525396 -0.052162867 0.059585255 1.4453708e-038
0.15525874 -0.056234751 0.066007994 1.4819615e-038
-0.10788672 0.059913743 0.051959079 1.4087801e-038
-0.10788888 0.050270669 0.061002802 1.4545185e-038
-0.10788932 0.065058663 0.061183169 1.4545185e-038
-0.08586584 0.06039295 0.051292147 1.4087801e-038
-0.10786796 0.049909826 0.061515886 1.4545185e-038
-0.060129467 0.061736405 0.049655575 1.3996325e-038
-0.075559616 0.051210687 0.060440343 1.4545185e-038
-0.038001832 0.06168839 0.049642287 1.3996325e-038
-0.050062023 0.052557811 0.059264842 1.4453708e-038
-0.029804036 0.065641604 0.058247779 1.4453708e-038
-0.029484853 0.05331745 0.058503687 1.4453708e-038
-0.023466548 0.060808077 0.063512646 1.4636662e-038
0.083221763 0.059671573 0.052057512 1.4179278e-038
0.076068163 0.052308064 0.059223983 1.4453708e-038
0.074931689 0.066286311 0.060479041 1.4545185e-038
0.10010045 0.062978566 0.048108246 1.3996325e-038
0.091237769 0.052642375 0.059151474 1.4453708e-038
0.12782411 0.061266433 0.050186746 1.4087801e-038
0.11384878 0.052567836 0.059310585 1.4453708e-038
0.15524986 0.060998183 0.050688308 1.4087801e-038
0.14120302 0.051941972 0.059733599 1.4453708e-038
0.15525797 0.06478449 0.054975457 1.4270755e-038
0.15526058 0.051779699 0.059719272 1.4453708e-038
0.15525717 0.062316254 0.066385761 1.4819615e-038
-0.10788817 0.082251772 0.063253261 1.4636662e-038
-0.031756077 0.08263085 0.05660329 1.4362232e-038
-0.020684615 0.075501561 0.065607667 1.4728139e-038
0.086648308 0.062792949 0.048342705 1.3996325e-038
0.073452152 0.089768618 0.061769638 1.4636662e-038
0.15525511 0.081806339 0.064654872 1.4728139e-038
-0.10788754 0.10077828 0.065825164 1.4819615e-038
-0.030997792 0.10689937 0.057309285 1.4362232e-038
-0.019988686 0.097345866 0.066142127 1.4819615e-038
0.083058186 0.10198571 0.052558336 1.4179278e-038
0.071051508 0.11444063 0.063548297 1.4636662e-038
0.15525505 0.099025413 0.062537678 1.4636662e-038
-0.10788722 0.13154161 0.071939737 1.5094046e-038
-0.031674579 0.12625411 0.056532051 1.4362232e-038
-0.020468118 0.11864141 0.065816313 1.4819615e-038
0.081530795 0.131567 0.054241195 1.4270755e-038
0.0705171 0.13157593 0.063748844 1.4728139e-038
0.15525568 0.11583879 0.062946029 1.4636662e-038
-0.10786248 0.13157177 0.064075775 1.4728139e-038
-0.086893357 0.1315721 0.062565833 1.4636662e-038
-0.063535668 0.13157326 0.061991692 1.4636662e-038
-0.041453153 0.13157086 0.062565699 1.4636662e-038
-0.025725652 0.13156845 0.061972003 1.4636662e-038
0.086566769 0.13157505 0.0648828 1.4728139e-038
0.10568777 0.13157424 0.066858225 1.4819615e-038
0.12013879 0.13157362 0.064723022 1.4728139e-038
0.14173776 0.13157098 0.063623473 1.4636662e-038
0.15525725 0.1315666 0.062370766 1.4636662e-038
-0.1078788 -0.13157259 0.08684136 1.5734383e-038
-0.10788801 -0.13154057 0.076194078 1.5276999e-038
-0.08675953 -0.1315721 0.082544781 1.555143e-038
-0.064362377 -0.13157259 0.081124939 1.5459953e-038
-0.044834673 -0.13157345 0.081050724 1.5459953e-038
-0.028167836 -0.13157389 0.079707772 1.5459953e-038
-0.0033310466 -0.13152939 0.07475175 1.5185523e-038
-0.0096423905 -0.13157386 0.07162042 1.5094046e-038
0.015379963 -0.13156818 0.078882053 1.5368476e-038
0.011753787 -0.131577 0.078199387 1.5368476e-038
0.032173142 -0.13155968 0.078848496 1.5368476e-038
0.026554225 -0.131578 0.078969575 1.5368476e-038
0.048818767 -0.13156994 0.075125009 1.5185523e-038
0.045431498 -0.13157307 0.084785663 1.5642906e-038
0.060560055 -0.13157643 0.069955081 1.5002569e-038
0.066132858 -0.1315749 0.082689844 1.555143e-038
0.085883021 -0.13157369 0.087359115 1.582586e-038
0.10122035 -0.13157342 0.083750419 1.5642906e-038
0.12046319 -0.13157289 0.083324276 1.555143e-038
0.14185305 -0.13157068 0.080962434 1.5459953e-038
0.1552576 -0.13156684 0.075380385 1.5185523e-038
0.15525508 -0.11589295 0.079924226 1.5459953e-038
-0.10788806 -0.10133283 0.080687612 1.5459953e-038
-0.0061202669 -0.096398652 0.073488794 1.5094046e-038
0.010605873 -0.101388 0.078259178 1.5368476e-038
0.028521689 -0.10348271 0.079184078 1.5368476e-038
0.045181721 -0.10825367 0.076340184 1.5276999e-038
0.059951965 -0.11542156 0.070463248 1.5002569e-038
0.15525387 -0.099512093 0.082504518 1.555143e-038
-0.1078881 -0.083130158 0.083230145 1.555143e-038
-0.0074873515 -0.07554128 0.072970405 1.5094046e-038
0.0094178924 -0.080582514 0.078093059 1.5368476e-038
0.027435077 -0.082436748 0.079317182 1.5368476e-038
0.045661587 -0.084482402 0.076329291 1.5276999e-038
0.060057793 -0.091158055 0.070458286 1.5002569e-038
0.15525423 -0.08328066 0.082945742 1.555143e-038
-0.10788813 -0.068251863 0.087078586 1.5734383e-038
-0.010181072 -0.055195227 0.071876146 1.5094046e-038
0.0085780686 -0.061424285 0.078002483 1.5368476e-038
0.027520787 -0.063030735 0.079344906 1.5368476e-038
0.046154547 -0.062842555 0.076238476 1.5276999e-038
0.063107207 -0.06455835 0.068902023 1.4911092e-038
0.15525438 -0.069541678 0.085780047 1.5734383e-038
-0.10788896 -0.037493937 0.069709405 1.5002569e-038
-0.10788916 -0.048218139 0.083253868 1.555143e-038
-0.095415346 -0.040521633 0.068041824 1.4911092e-038
-0.063688099 -0.040084716 0.068373926 1.4911092e-038
-0.041759703 -0.040667422 0.068021327 1.4911092e-038
-0.017543582 -0.041680414 0.067483775 1.4819615e-038
-0.0057762028 -0.039156377 0.073566742 1.5185523e-038
0.008778383 -0.043077499 0.078035519 1.5368476e-038
0.027610458 -0.044421278 0.079351313 1.5368476e-038
0.045751903 -0.044330597 0.076281302 1.5276999e-038
0.06145826 -0.037362713 0.069675565 1.5002569e-038
0.068204097 -0.045037724 0.065311059 1.4728139e-038
0.10334639 -0.041064221 0.067854829 1.4911092e-038
0.12474586 -0.038999431 0.069043644 1.4911092e-038
0.15524541 -0.038253158 0.069535322 1.4911092e-038
0.15525661 -0.042548869 0.073658027 1.5185523e-038
0.15525588 -0.053820923 0.082410172 1.555143e-038
-0.10788843 -0.023394417 0.075693689 1.5276999e-038
-0.10788995 -0.027285328 0.086385608 1.5734383e-038
-0.095590822 -0.027270632 0.074417762 1.5185523e-038
-0.064378388 -0.025966663 0.074979827 1.5185523e-038
-0.04470424 -0.025943587 0.074986063 1.5185523e-038
-0.025260642 -0.026910277 0.074662685 1.5185523e-038
-0.0034795851 -0.027189514 0.074486643 1.5185523e-038
0.0090029864 -0.026450057 0.078042477 1.5368476e-038
0.027410708 -0.026707804 0.079341829 1.5368476e-038
0.044159729 -0.019705569 0.076557368 1.5276999e-038
0.05034776 -0.026962776 0.074551918 1.5185523e-038
0.079703636 -0.028429123 0.074206226 1.5185523e-038
0.099967599 -0.027622139 0.074516051 1.5185523e-038
0.12128966 -0.025192775 0.075257517 1.5185523e-038
0.14573324 -0.023651019 0.075690925 1.5276999e-038
0.15525806 -0.024730554 0.075131595 1.5185523e-038
0.15525514 -0.034358472 0.086091392 1.5734383e-038
-0.10788757 -0.0064723701 0.079043053 1.5368476e-038
-0.1078899 -0.0092780776 0.086404689 1.5734383e-038
-0.089818977 -0.010949199 0.07864178 1.5368476e-038
-0.065614 -0.0099766785 0.078834303 1.5368476e-038
-0.045447942 -0.0088735269 0.078905225 1.5368476e-038
-0.026543371 -0.0091236569 0.078907408 1.5368476e-038
-0.0086812917 -0.0096211936 0.078873932 1.5368476e-038
0.012918701 -0.0084173856 0.078786515 1.5368476e-038
0.024646554 -0.0046021705 0.079191633 1.5368476e-038
0.032386523 -0.0079324273 0.078809723 1.5368476e-038
0.062843725 -0.0095581943 0.078840971 1.5368476e-038
0.080738716 -0.0098662451 0.078848697 1.5368476e-038
0.099775977 -0.0096107721 0.078867346 1.5368476e-038
0.12050009 -0.0084669245 0.078977935 1.5368476e-038
0.14395709 -0.0078993225 0.078944601 1.5368476e-038
0.15525469 -0.011170369 0.07844308 1.5368476e-038
0.15525407 -0.016649337 0.087569252 1.582586e-038
-0.10788449 0.011435525 0.078448467 1.5368476e-038
-0.10788806 0.0083109513 0.08600314 1.5734383e-038
-0.088946365 0.0073344568 0.079065681 1.5368476e-038
-0.065319896 0.0082225567 0.079040579 1.5368476e-038
-0.045116894 0.0095079318 0.078874908 1.5368476e-038
-0.026366597 0.0096767461 0.078861028 1.5368476e-038
-0.0084785158 0.009304788 0.078882501 1.5368476e-038
0.016699983 0.0073224311 0.078885682 1.5368476e-038
0.028336821 0.0078178355 0.078945801 1.5368476e-038
0.045424551 0.0097944299 0.078869499 1.5368476e-038
0.062904395 0.009310998 0.078923702 1.5368476e-038
0.08135967 0.0088666193 0.07893075 1.5368476e-038
0.10064352 0.0090317493 0.078902088 1.5368476e-038
0.12114379 0.0092390515 0.078872398 1.5368476e-038
0.14352754 0.0088223303 0.078801014 1.5368476e-038
0.15525584 0.0046606567 0.079065591 1.5368476e-038
0.1552539 0.00029815617 0.086684339 1.5734383e-038
-0.10788694 0.027523367 0.074292116 1.5185523e-038
-0.1078887 0.026325122 0.083704017 1.5642906e-038
-0.091861211 0.024601514 0.075417913 1.5185523e-038
-0.065746322 0.02561472 0.075152203 1.5185523e-038
-0.044749793 0.027363814 0.07458438 1.5185523e-038
-0.026146084 0.027735205 0.074422009 1.5185523e-038
-0.0015637145 0.025879994 0.074907549 1.5185523e-038
0.0097571267 0.013992932 0.078006282 1.5368476e-038
0.027568063 0.027076447 0.07936506 1.5368476e-038
0.045477707 0.022104278 0.076209359 1.5276999e-038
0.06127331 0.027366472 0.074496485 1.5185523e-038
0.080013178 0.026904093 0.07470715 1.5185523e-038
0.09980911 0.026004231 0.074969888 1.5185523e-038
0.12182384 0.026580226 0.074797824 1.5185523e-038
0.15524913 0.025049023 0.075216234 1.5185523e-038
0.15525922 0.016297957 0.0773248 1.5276999e-038
0.15525669 0.017399373 0.086290807 1.5734383e-038
-0.10788772 0.039346006 0.068588257 1.4911092e-038
-0.10788733 0.0459341 0.079313539 1.5368476e-038
-0.09653423 0.038879078 0.069053859 1.4911092e-038
-0.069373056 0.039737135 0.068623841 1.4911092e-038
-0.046388794 0.041483887 0.067575514 1.4819615e-038
-0.019874897 0.043680612 0.06613563 1.4819615e-038
-0.0087672519 0.03214442 0.072355457 1.5094046e-038
0.0084815826 0.044495147 0.077947177 1.5368476e-038
0.027068118 0.044295084 0.079385206 1.5368476e-038
0.045859508 0.042571384 0.076267809 1.5276999e-038
0.059270181 0.035036389 0.070820704 1.5002569e-038
0.066449746 0.043005355 0.066595696 1.4819615e-038
0.096652173 0.040598787 0.068072684 1.4911092e-038
0.11893422 0.040483329 0.068138666 1.4911092e-038
0.15525383 0.040963404 0.067903548 1.4911092e-038
0.15525967 0.040903445 0.073330387 1.5094046e-038
0.15525675 0.038991388 0.08457315 1.5642906e-038
-0.10788812 0.064092517 0.081471562 1.555143e-038
-0.0095548648 0.065682307 0.072136983 1.5094046e-038
0.0082588065 0.06347999 0.077953935 1.5368476e-038
0.026926711 0.063263856 0.079365537 1.5368476e-038
0.045649994 0.061184157 0.076347895 1.5276999e-038
0.063571386 0.054437459 0.068664484 1.4911092e-038
0.15525505 0.063574806 0.082358338 1.555143e-038
-0.10788744 0.08170151 0.081982285 1.555143e-038
-0.0069213938 0.089238495 0.073166676 1.5094046e-038
0.00865837 0.084124796 0.077981636 1.5368476e-038
0.027120909 0.083661422 0.079342999 1.5368476e-038
0.044504266 0.08182542 0.076584823 1.5276999e-038
0.060533658 0.076565459 0.070243128 1.5002569e-038
0.15525527 0.08189258 0.081750907 1.555143e-038
-0.10788744 0.10057855 0.084121667 1.5642906e-038
-0.0066903164 0.11260413 0.073212035 1.5094046e-038
0.0086793303 0.1070336 0.077875793 1.5368476e-038
0.025956782 0.10592373 0.079326615 1.5368476e-038
0.043833822 0.10606081 0.076729819 1.5276999e-038
0.059352033 0.10149283 0.070784904 1.5002569e-038
0.15525514 0.099318422 0.080504201 1.5459953e-038
-0.10788689 0.13154851 0.090219893 1.5917337e-038
-0.01111812 0.13156115 0.071217954 1.5002569e-038
0.0056661116 0.1315621 0.077235535 1.5276999e-038
0.022087291 0.13156448 0.079290971 1.5368476e-038
0.038781486 0.13156384 0.077856302 1.5368476e-038
0.057201654 0.13156801 0.071938083 1.5094046e-038
0.15525515 0.11600953 0.080962919 1.5459953e-038
-0.10786164 0.13157424 0.082484715 1.555143e-038
-0.086939111 0.13157271 0.081038631 1.5459953e-038
-0.064670689 0.13157243 0.080770858 1.5459953e-038
-0.044522069 0.13157327 0.081268191 1.5459953e-038
-0.026463885 0.1315728 0.080680937 1.5459953e-038
-0.0046220911 0.13157088 0.080577157 1.5459953e-038
0.016096117 0.13157474 0.078597993 1.5368476e-038
0.031308517 0.13157545 0.078589141 1.5368476e-038
0.049382765 0.13157243 0.083873376 1.5642906e-038
0.069931827 0.13157377 0.079895228 1.5459953e-038
0.087529793 0.13157324 0.084888056 1.5642906e-038
0.10152256 0.13157354 0.082721449 1.555143e-038
0.12015997 0.13157293 0.083113253 1.555143e-038
0.14162095 0.13157173 0.08188729 1.555143e-038
0.15525606 0.13156892 0.080569647 1.5459953e-038
-0.10787957 -0.13157195 0.10534316 1.6649151e-038
-0.10788778 -0.12095455 0.094411187 1.610029e-038
-0.084446222 -0.13157067 0.1020605 1.6466197e-038
-0.063362777 -0.13157098 0.10044261 1.637472e-038
-0.044320084 -0.1315719 0.1011117 1.6466197e-038
-0.026318202 -0.1315724 0.10114558 1.6466197e-038
-0.0085745426 -0.13157235 0.10113923 1.6466197e-038
0.0095924046 -0.13157327 0.10036097 1.637472e-038
0.027553193 -0.13157363 0.10128596 1.6466197e-038
0.044874936 -0.1315736 0.10214306 1.6466197e-038
0.063371457 -0.13157311 0.10157197 1.6466197e-038
0.083723672 -0.13157241 0.10157648 1.6466197e-038
0.10190333 -0.13157125 0.10214645 1.6466197e-038
0.12140252 -0.13157064 0.10214283 1.6466197e-038
0.1416609 -0.13157134 0.099405289 1.637472e-038
0.15525629 -0.13156851 0.093399107 1.610029e-038
0.15525389 -0.11543086 0.097885877 1.6283244e-038
-0.10788675 -0.10161731 0.099281192 1.637472e-038
0.15525413 -0.097803786 0.099513009 1.637472e-038
-0.10788767 -0.083051145 0.10080174 1.637472e-038
0.15525404 -0.080533914 0.09960638 1.637472e-038
-0.10788798 -0.065536499 0.10113588 1.6466197e-038
0.1552545 -0.063738838 0.099590838 1.637472e-038
-0.1078885 -0.046321929 0.1011022 1.6466197e-038
0.15525508 -0.045778677 0.10005652 1.637472e-038
-0.10788857 -0.026844686 0.10127775 1.6466197e-038
0.15525508 -0.027665073 0.10063242 1.637472e-038
-0.10788808 -0.0085739624 0.10121956 1.6466197e-038
0.15525502 -0.0098175742 0.10025877 1.637472e-038
-0.10788773 0.0094520366 0.10115482 1.6466197e-038
0.15525576 0.008125768 0.1000269 1.637472e-038
-0.10788808 0.027147893 0.10089488 1.637472e-038
0.15525602 0.026652528 0.10023583 1.637472e-038
-0.10788822 0.04498237 0.10069446 1.637472e-038
0.15525541 0.046274755 0.099618778 1.637472e-038
-0.1078878 0.062888183 0.1005866 1.637472e-038
0.15525548 0.06528759 0.099267647 1.637472e-038
-0.10788751 0.081028707 0.10091823 1.637472e-038
0.15525557 0.083403945 0.099215172 1.637472e-038
-0.10788747 0.10039794 0.10316931 1.6557674e-038
0.15525486 0.10082351 0.098156109 1.6283244e-038
-0.10788536 0.11864328 0.10932234 1.6832104e-038
0.15525471 0.11694605 0.098507158 1.6283244e-038
-0.10787649 0.13157551 0.10121748 1.6466197e-038
-0.086972423 0.13157123 0.10098919 1.6466197e-038
-0.066458568 0.13157085 0.10056185 1.637472e-038
-0.047237314 0.13157231 0.10151299 1.6466197e-038
-0.028867066 0.13157259 0.10161743 1.6466197e-038
-0.010091362 0.13157251 0.1013547 1.6466197e-038
0.0092698932 0.13157076 0.10110067 1.6466197e-038
0.027144564 0.13157183 0.10148787 1.6466197e-038
0.044335637 0.13157137 0.10155252 1.6466197e-038
0.062838845 0.13157235 0.10133522 1.6466197e-038
0.081612922 0.13157228 0.10143224 1.6466197e-038
0.098918214 0.13157223 0.10213456 1.6466197e-038
0.11778767 0.13157158 0.10265974 1.6466197e-038
0.13938001 0.13157164 0.10173537 1.6466197e-038
0.15525527 0.13157092 0.099201314 1.637472e-038
-0.10787322 -0.13157322 0.13155501 1.7838349e-038
-0.10788863 -0.13153999 0.11457725 1.7015058e-038
-0.081760302 -0.13157 0.1315493 1.7838349e-038
-0.062504217 -0.13157021 0.13154389 1.7838349e-038
-0.043623757 -0.13157026 0.13154341 1.7838349e-038
-0.025400983 -0.13157044 0.1315506 1.7838349e-038
-0.0072723781 -0.13157092 0.1315501 1.7838349e-038
0.01086612 -0.13157122 0.13154934 1.7838349e-038
0.029023318 -0.13157129 0.13154927 1.7838349e-038
0.047120485 -0.13157114 0.13154994 1.7838349e-038
0.065319084 -0.13157099 0.13154988 1.7838349e-038
0.08362972 -0.13157117 0.13154911 1.7838349e-038
0.10191783 -0.13157092 0.13154985 1.7838349e-038
0.12130413 -0.13156988 0.13154538 1.7838349e-038
0.14267024 -0.13157029 0.13155726 1.7838349e-038
0.15525505 -0.13156831 0.11078461 1.6923581e-038
0.15525343 -0.11210255 0.11472411 1.7106535e-038
-0.10788663 -0.10019307 0.11854693 1.7198011e-038
0.15525386 -0.093290158 0.11562442 1.7106535e-038
-0.10788641 -0.083524697 0.1315373 1.7838349e-038
0.15525554 -0.075312786 0.11585135 1.7106535e-038
-0.10788734 -0.06526579 0.1315431 1.7838349e-038
0.15525636 -0.057290822 0.1159343 1.7106535e-038
-0.10788757 -0.047114555 0.13154106 1.7838349e-038
0.15525688 -0.039152693 0.11602153 1.7106535e-038
-0.10788786 -0.028803714 0.13153763 1.7838349e-038
0.1552572 -0.021008588 0.1160304 1.7106535e-038
-0.10788791 -0.010621701 0.13154055 1.7838349e-038
0.15525585 -0.0028721411 0.11603186 1.7106535e-038
-0.10788786 0.0074590221 0.13154228 1.7838349e-038
0.15525737 0.015323793 0.11604267 1.7106535e-038
-0.10788783 0.025662679 0.13154371 1.7838349e-038
0.15525711 0.033597857 0.11599054 1.7106535e-038
-0.10788762 0.043800008 0.13154 1.7838349e-038
0.15525681 0.05188017 0.11591983 1.7106535e-038
-0.10788709 0.061915599 0.13154393 1.7838349e-038
0.15525638 0.070087917 0.11586577 1.7106535e-038
-0.10788736 0.080319636 0.13154089 1.7838349e-038
0.15525557 0.088086247 0.11579053 1.7106535e-038
-0.10788758 0.09956608 0.13155429 1.7838349e-038
0.15525469 0.10512611 0.11459143 1.7015058e-038
-0.1078868 0.11552411 0.13155213 1.7838349e-038
0.15525514 0.11839029 0.11291891 1.7015058e-038
-0.10788604 0.13157038 0.11803194 1.7198011e-038
-0.089177966 0.13157201 0.13155709 1.7838349e-038
-0.070596837 0.13157032 0.13154413 1.7838349e-038
-0.051679224 0.13157076 0.13154978 1.7838349e-038
-0.033373438 0.13157146 0.13155012 1.7838349e-038
-0.015184057 0.13157141 0.13155049 1.7838349e-038
0.0030839951 0.13157156 0.13155004 1.7838349e-038
0.021316638 0.13157174 0.13154961 1.7838349e-038
0.03943073 0.13157168 0.13154958 1.7838349e-038
0.057571653 0.13157131 0.13155012 1.7838349e-038
0.075756714 0.13157082 0.1315508 1.7838349e-038
0.093845174 0.13157028 0.13154422 1.7838349e-038
0.11220795 0.13156919 0.13154584 1.7838349e-038
0.13209765 0.13156982 0.13154615 1.7838349e-038
0.15525438 0.13157278 0.13154948 1.7838349e-038
-0.10788837 -0.1134786 0.13157399 1.7838349e-038
-0.085293852 -0.13154157 0.13157214 1.7838349e-038
-0.065911733 -0.13154905 0.13157153 1.7838349e-038
-0.047768548 -0.13154675 0.13156901 1.7838349e-038
-0.030231625 -0.13154504 0.13156946 1.7838349e-038
-0.012375822 -0.13154596 0.13157107 1.7838349e-038
0.006024241 -0.13154672 0.1315714 1.7838349e-038
0.024234859 -0.13154687 0.13157147 1.7838349e-038
0.042523671 -0.13154604 0.13157097 1.7838349e-038
0.061325058 -0.13154599 0.13157021 1.7838349e-038
0.079827912 -0.1315466 0.13157079 1.7838349e-038
0.098143481 -0.13154684 0.13157283 1.7838349e-038
0.11782952 -0.13154176 0.13157058 1.7838349e-038
0.13840652 -0.13154727 0.13157392 1.7838349e-038
0.15525836 -0.13155486 0.13158016 1.7838349e-038
-0.10787869 -0.094069801 0.13156989 1.7838349e-038
-0.086201258 -0.10021888 0.1315697 1.7838349e-038
-0.066388756 -0.10255689 0.13157097 1.7838349e-038
-0.048453573 -0.1025904 0.13157246 1.7838349e-038
-0.034892071 -0.1053203 0.13157083 1.7838349e-038
-0.018143961 -0.10092681 0.13157271 1.7838349e-038
0.0016106749 -0.10595112 0.13157266 1.7838349e-038
0.019836832 -0.10719439 0.13157402 1.7838349e-038
0.037154242 -0.10686195 0.13157345 1.7838349e-038
0.058255859 -0.10218058 0.1315714 1.7838349e-038
0.079837583 -0.10222121 0.13157012 1.7838349e-038
0.098790899 -0.10121296 0.13157162 1.7838349e-038
0.11842383 -0.1003501 0.13157021 1.7838349e-038
0.13955086 -0.10285262 0.13156861 1.7838349e-038
0.15525462 -0.10556464 0.13156772 1.7838349e-038
-0.1078622 -0.07564573 0.13157101 1.7838349e-038
-0.087420098 -0.08155825 0.13156988 1.7838349e-038
-0.066536546 -0.083265185 0.13157345 1.7838349e-038
-0.051712222 -0.085605688 0.13157289 1.7838349e-038
-0.034016181 -0.083748892 0.13157459 1.7838349e-038
-0.019221731 -0.081608273 0.13157599 1.7838349e-038
-0.0047038407 -0.088069856 0.13157582 1.7838349e-038
0.014976215 -0.091980807 0.13157459 1.7838349e-038
0.02941671 -0.092033595 0.13157648 1.7838349e-038
0.04728213 -0.089057267 0.13157527 1.7838349e-038
0.062516831 -0.089448832 0.13157521 1.7838349e-038
0.079288244 -0.084776476 0.13157417 1.7838349e-038
0.072744273 -0.078145891 0.13157727 1.7838349e-038
0.099450976 -0.082899794 0.13157253 1.7838349e-038
0.11964343 -0.08120016 0.13157083 1.7838349e-038
0.14167616 -0.082671687 0.13156989 1.7838349e-038
0.15525679 -0.08682894 0.13157021 1.7838349e-038
-0.10786367 -0.057418086 0.13157284 1.7838349e-038
-0.088120878 -0.063913442 0.13157178 1.7838349e-038
-0.070738219 -0.068653643 0.13157137 1.7838349e-038
-0.050877228 -0.065404542 0.1315756 1.7838349e-038
-0.039014325 -0.067631938 0.13157906 1.7838349e-038
-0.02925179 -0.075625859 0.13158678 1.7838349e-038
0.081830971 -0.071555875 0.13157538 1.7838349e-038
0.098669603 -0.067025766 0.13157481 1.7838349e-038
0.090267316 -0.063895889 0.13158032 1.7838349e-038
0.1200579 -0.06376785 0.1315721 1.7838349e-038
0.14185169 -0.064341821 0.13156971 1.7838349e-038
0.15525798 -0.068634205 0.13156919 1.7838349e-038
-0.10786444 -0.040078737 0.13157195 1.7838349e-038
-0.09068799 -0.04893332 0.13157299 1.7838349e-038
-0.069431767 -0.048129771 0.13157313 1.7838349e-038
-0.055006627 -0.047997244 0.13158052 1.7838349e-038
-0.048188664 -0.057998519 0.13159133 1.7838349e-038
0.10192636 -0.054630298 0.13157989 1.7838349e-038
0.11933599 -0.04606932 0.1315745 1.7838349e-038
0.10652722 -0.040533856 0.13157831 1.7838349e-038
0.14190209 -0.046567857 0.13157091 1.7838349e-038
0.15525858 -0.050478429 0.13157058 1.7838349e-038
-0.10786542 -0.021046363 0.13157015 1.7838349e-038
-0.086386614 -0.03071565 0.13157345 1.7838349e-038
-0.070350572 -0.030585613 0.13157463 1.7838349e-038
-0.059955742 -0.038952839 0.13157843 1.7838349e-038
0.12354361 -0.02509721 0.1315749 1.7838349e-038
0.11172424 -0.027941929 0.13157767 1.7838349e-038
0.14177901 -0.028475689 0.13157162 1.7838349e-038
0.15525897 -0.032310456 0.13157111 1.7838349e-038
-0.10786596 -0.0032611652 0.13156958 1.7838349e-038
-0.089620151 -0.010372045 0.13157257 1.7838349e-038
-0.074575327 -0.016883967 0.13157424 1.7838349e-038
0.12403 -0.0088711586 0.13157557 1.7838349e-038
0.11540071 -0.01124896 0.1315816 1.7838349e-038
0.14236008 -0.010691529 0.1315722 1.7838349e-038
0.15525606 -0.014170497 0.13157138 1.7838349e-038
-0.10786411 0.014651731 0.13157195 1.7838349e-038
-0.088097602 0.0092970384 0.13157365 1.7838349e-038
-0.068394624 0.0029391933 0.13157293 1.7838349e-038
0.12471616 0.0099453898 0.13157584 1.7838349e-038
0.11585315 0.0065555274 0.13157989 1.7838349e-038
0.1421323 0.0068674996 0.1315725 1.7838349e-038
0.15525612 0.0039359243 0.13157155 1.7838349e-038
-0.10786273 0.033600673 0.13157316 1.7838349e-038
-0.084131047 0.028829582 0.13157514 1.7838349e-038
-0.06579005 0.022246238 0.13157856 1.7838349e-038
0.12426886 0.027890915 0.13157399 1.7838349e-038
0.11294988 0.023767915 0.13157673 1.7838349e-038
0.14212796 0.02488617 0.13157177 1.7838349e-038
0.1552591 0.02209216 0.13157123 1.7838349e-038
-0.10786235 0.051502198 0.13157289 1.7838349e-038
-0.087384351 0.046528336 0.13157338 1.7838349e-038
-0.061255958 0.035702936 0.13157944 1.7838349e-038
-0.061280396 0.049368344 0.13157827 1.7838349e-038
-0.0566811 0.045511 0.13158548 1.7838349e-038
0.12089526 0.04827952 0.13157372 1.7838349e-038
0.10729366 0.039169192 0.13157584 1.7838349e-038
0.14202717 0.043703023 0.13157049 1.7838349e-038
0.15525883 0.040287424 0.13157059 1.7838349e-038
-0.10786124 0.069618896 0.13157272 1.7838349e-038
-0.087058462 0.064288884 0.13157195 1.7838349e-038
-0.062181637 0.064711936 0.13157378 1.7838349e-038
-0.048419308 0.057591032 0.13159032 1.7838349e-038
-0.040780932 0.065939434 0.13158096 1.7838349e-038
-0.040322132 0.066553675 0.13964944 1.8204256e-038
0.10566083 0.067116551 0.13157421 1.7838349e-038
0.090138935 0.063927099 0.13157421 1.7838349e-038
0.09882234 0.053737264 0.13158046 1.7838349e-038
0.1262266 0.069235623 0.13157155 1.7838349e-038
0.14185028 0.063453197 0.1315694 1.7838349e-038
0.15525836 0.058523621 0.13156973 1.7838349e-038
-0.10786419 0.088346548 0.13157409 1.7838349e-038
-0.08676976 0.082671843 0.13157105 1.7838349e-038
-0.064238653 0.081288688 0.13157125 1.7838349e-038
-0.044075347 0.081812911 0.13157454 1.7838349e-038
-0.031718329 0.073791519 0.13158585 1.7838349e-038
-0.026529713 0.083578289 0.13157921 1.7838349e-038
-0.018833075 0.082017638 0.13159335 1.7838349e-038
0.088706784 0.084629819 0.13157386 1.7838349e-038
0.074545473 0.083341517 0.13157569 1.7838349e-038
0.081872061 0.071600355 0.13157751 1.7838349e-038
0.10656185 0.086848445 0.13157253 1.7838349e-038
0.12222167 0.084186397 0.13157175 1.7838349e-038
0.14217916 0.081697404 0.13156962 1.7838349e-038
0.15525752 0.076685347 0.13156839 1.7838349e-038
-0.10786627 0.10624573 0.13157335 1.7838349e-038
-0.084584951 0.10236593 0.1315711 1.7838349e-038
-0.063468389 0.10048297 0.13157015 1.7838349e-038
-0.044324875 0.10128729 0.13156949 1.7838349e-038
-0.025955401 0.10240031 0.13157105 1.7838349e-038
-0.0019727647 0.08874961 0.13158081 1.7838349e-038
-0.0012195718 0.10250083 0.13157336 1.7838349e-038
0.014669717 0.091913648 0.13157541 1.7838349e-038
0.01935019 0.10686955 0.13157395 1.7838349e-038
0.028237717 0.09209796 0.13157697 1.7838349e-038
0.03663113 0.10701482 0.13157393 1.7838349e-038
0.04438974 0.089799643 0.13157633 1.7838349e-038
0.053625595 0.10572132 0.13157222 1.7838349e-038
0.060467713 0.084493831 0.13157402 1.7838349e-038
0.072711073 0.10107236 0.13157155 1.7838349e-038
0.089290202 0.10638428 0.13157026 1.7838349e-038
0.10306293 0.10305678 0.13157201 1.7838349e-038
0.12155827 0.10304151 0.13157067 1.7838349e-038
0.14190428 0.1004117 0.13156943 1.7838349e-038
0.15525588 0.094965778 0.13156916 1.7838349e-038
-0.10786772 0.13155238 0.13157612 1.7838349e-038
-0.083111778 0.13154988 0.13157222 1.7838349e-038
-0.063188113 0.1315431 0.13157158 1.7838349e-038
-0.044164557 0.13154708 0.13157003 1.7838349e-038
-0.025917271 0.13154671 0.13156965 1.7838349e-038
-0.0073071416 0.13154604 0.13157061 1.7838349e-038
0.011646722 0.13154645 0.13157129 1.7838349e-038
0.029933272 0.13154717 0.13157165 1.7838349e-038
0.04798685 0.13154691 0.13157146 1.7838349e-038
0.066186719 0.13154604 0.13157097 1.7838349e-038
0.084115751 0.13154475 0.13156918 1.7838349e-038
0.10170621 0.13154422 0.13156888 1.7838349e-038
0.12043899 0.13154007 0.13157143 1.7838349e-038
0.14133833 0.13153055 0.13157068 1.7838349e-038
0.15525645 0.11145567 0.13156828 1.7838349e-038
-0.0053250873 -0.087696791 0.15203518 1.8844593e-038
-0.01819442 -0.08225964 0.14204022 1.8295733e-038
0.0099840211 -0.091409557 0.14403963 1.8387209e-038
0.026839897 -0.09232571 0.14077412 1.8295733e-038
0.042376988 -0.090544894 0.1316011 1.7838349e-038
0.058374856 -0.085705541 0.13158561 1.7838349e-038
0.070727468 -0.079436854 0.15053059 1.8753116e-038
-0.029380696 -0.075516403 0.15602602 1.9027547e-038
-0.039139204 -0.06766206 0.14693703 1.8570163e-038
0.081716716 -0.071775198 0.14195435 1.8295733e-038
0.091275968 -0.06288629 0.15155664 1.8753116e-038
-0.048397705 -0.057689015 0.15633477 1.9027547e-038
-0.055629171 -0.047179844 0.14458376 1.8478686e-038
0.099801652 -0.052350666 0.13159363 1.7838349e-038
0.10708579 -0.03969299 0.14229326 1.8387209e-038
-0.061633859 -0.035204649 0.15319116 1.8844593e-038
-0.06493745 -0.025791705 0.13158345 1.7838349e-038
0.11266334 -0.025063207 0.14672591 1.8570163e-038
-0.068462968 -0.0081516635 0.13158962 1.7838349e-038
0.11583001 -0.0079879798 0.14964275 1.866164e-038
-0.068291955 0.0094810892 0.13160422 1.7838349e-038
0.11561301 0.010262375 0.14910729 1.866164e-038
-0.065788366 0.022625197 0.14923954 1.866164e-038
0.11187044 0.027717456 0.14576694 1.8478686e-038
-0.062136784 0.03390396 0.13160692 1.7838349e-038
-0.056799129 0.045225039 0.15423629 1.893607e-038
0.10552654 0.042786222 0.1450766 1.8478686e-038
-0.049404934 0.056424409 0.14638163 1.8570163e-038
-0.039976265 0.066876277 0.15694034 1.9027547e-038
0.090186335 0.064011708 0.14180209 1.8295733e-038
0.098247319 0.054405037 0.15232469 1.8844593e-038
-0.029733077 0.075270362 0.14613354 1.8570163e-038
-0.018717311 0.081984997 0.15533933 1.893607e-038
0.07034459 0.079701006 0.13158605 1.7838349e-038
0.080507256 0.07274548 0.15078275 1.8753116e-038
-0.0062464504 0.087388054 0.14573903 1.8478686e-038
0.0095667467 0.091320679 0.14119713 1.8295733e-038
0.026099032 0.092365794 0.14040665 1.8295733e-038
0.041292243 0.090738334 0.13160355 1.7838349e-038
0.056399196 0.086452961 0.13159975 1.7838349e-038
-0.0050870096 -0.087766841 0.17730957 1.9942314e-038
-0.018267039 -0.082233965 0.16512227 1.9393454e-038
0.010187191 -0.091456495 0.17233661 1.9759361e-038
0.027167959 -0.092413284 0.17006278 1.9667884e-038
0.043204091 -0.090350971 0.16617592 1.948493e-038
0.057439242 -0.086001091 0.15918852 1.9119023e-038
0.070481129 -0.079576105 0.17471303 1.9850837e-038
-0.029361879 -0.07554578 0.17655373 1.9942314e-038
-0.039514426 -0.067284711 0.1670865 1.948493e-038
0.081529722 -0.071936905 0.16347486 1.9301977e-038
0.091010444 -0.063159131 0.1749766 1.9850837e-038
-0.048505124 -0.057548124 0.17674766 1.9942314e-038
-0.056024425 -0.04658512 0.16592678 1.948493e-038
0.099641509 -0.05250264 0.16115582 1.92105e-038
0.10673475 -0.040448923 0.1677424 1.9576407e-038
-0.061905626 -0.034577798 0.17545572 1.9850837e-038
-0.066045731 -0.021778688 0.160411 1.92105e-038
0.11249363 -0.0257734 0.17042066 1.9667884e-038
-0.068492524 -0.0066470797 0.16524979 1.9393454e-038
0.11580368 -0.0087583698 0.1715035 1.9667884e-038
-0.068340525 0.0082610566 0.17086257 1.9667884e-038
0.11571828 0.0097999824 0.17100492 1.9667884e-038
-0.066014133 0.021824332 0.17583518 1.9942314e-038
0.11204768 0.027328551 0.1717283 1.9759361e-038
-0.06193557 0.034402248 0.1640062 1.9393454e-038
-0.056410998 0.045918405 0.17623106 1.9942314e-038
0.10599865 0.041924227 0.1732848 1.9759361e-038
-0.04906882 0.056861483 0.16680729 1.948493e-038
-0.04001224 0.066808395 0.17683278 1.9942314e-038
0.090087183 0.064114928 0.16336325 1.9301977e-038
0.09869165 0.053819641 0.17734766 1.9942314e-038
-0.029918352 0.075152129 0.16666624 1.948493e-038
-0.018661799 0.082035534 0.17818587 2.0033791e-038
0.069149122 0.080350295 0.15857418 1.9119023e-038
0.080434136 0.072815269 0.17460664 1.9850837e-038
-0.0055702566 0.087617107 0.17298344 1.9759361e-038
0.0097219432 0.091407992 0.17111957 1.9667884e-038
0.026791884 0.092445843 0.17000662 1.9667884e-038
0.042912867 0.090409555 0.16806631 1.9576407e-038
0.056504998 0.086340129 0.16426218 1.9393454e-038
-0.0049229977 -0.08782357 0.19851953 2.0948559e-038
-0.018039051 -0.08235088 0.18618512 2.0399698e-038
0.010453925 -0.091511063 0.19382074 2.0765605e-038
0.027515169 -0.092411846 0.19091527 2.0582652e-038
0.044173215 -0.090127498 0.18834776 2.0491175e-038
0.058391448 -0.085570946 0.18340088 2.0308221e-038
0.070543967 -0.079521708 0.1950831 2.0765605e-038
-0.029307606 -0.075587742 0.19602501 2.0857082e-038
-0.039483756 -0.067313217 0.18629698 2.0399698e-038
0.081268862 -0.072152629 0.18572289 2.0399698e-038
0.090901732 -0.063272581 0.19517955 2.0857082e-038
-0.048553824 -0.057492692 0.19589801 2.0857082e-038
-0.056088291 -0.046481978 0.18611544 2.0399698e-038
0.09931612 -0.052937206 0.18360683 2.0308221e-038
0.10641501 -0.041061167 0.18825872 2.0491175e-038
-0.06194232 -0.034475982 0.19519266 2.0857082e-038
-0.066087648 -0.021612177 0.18313457 2.0216745e-038
0.11220292 -0.026680093 0.1906005 2.0582652e-038
-0.068406492 -0.0074756141 0.18817863 2.0491175e-038
0.11571486 -0.0096458914 0.1916239 2.0674128e-038
-0.068393052 0.0075909295 0.19218674 2.0674128e-038
0.11584096 0.0087610148 0.19259468 2.0674128e-038
-0.066056848 0.021664925 0.19724838 2.0948559e-038
0.11216467 0.026881594 0.19299044 2.0674128e-038
-0.062032204 0.034226261 0.18588233 2.0399698e-038
-0.056379471 0.04597294 0.19561152 2.0857082e-038
0.10605805 0.041771334 0.19398591 2.0765605e-038
-0.04894324 0.056995247 0.18627356 2.0399698e-038
-0.039993148 0.066830605 0.19597475 2.0857082e-038
0.090276554 0.063930549 0.18596138 2.0399698e-038
0.098824717 0.053639017 0.19815141 2.0948559e-038
-0.029961616 0.075124644 0.18650898 2.0399698e-038
-0.018513575 0.082111821 0.19813292 2.0948559e-038
0.069755211 0.079991467 0.18336488 2.0308221e-038
0.080694892 0.07259617 0.19515704 2.0857082e-038
-0.0053794025 0.087690033 0.19397721 2.0765605e-038
0.010250901 0.091493398 0.19209117 2.0674128e-038
0.027416037 0.092417076 0.19079611 2.0582652e-038
0.044046927 0.090151511 0.18989164 2.0582652e-038
0.058070779 0.085692912 0.18808436 2.0491175e-038
-0.0048199063 -0.087834187 0.22305922 2.2137757e-038
-0.017843606 -0.082457416 0.2074201 2.1405942e-038
0.01072645 -0.091542713 0.21811892 2.1863326e-038
0.028441017 -0.092386819 0.21448728 2.1680373e-038
0.044545449 -0.090022661 0.20976093 2.1497419e-038
