# .PCD v0.7 - Point Cloud Data file format
VERSION 0.7
FIELDS x y z
SIZE 4 4 4
TYPE F F F
COUNT 1 1 1
WIDTH 1533
HEIGHT 1
VIEWPOINT 0 0 0 1 0 0 0
POINTS 1533
DATA ascii
0.48866001 0.67852098 0.734429
0.463303 0.71651399 0.76055002
0.433945 0.51834899 0.46697301
0.463303 0.28348601 0.68715602
0.463303 0.28405201 0.67276001
0.463303 0.28574499 0.65845102
0.43717799 0.53876102 0.457798
0.433945 0.51834899 0.457798
0.47843 0.317424 0.65125102
0.47843 0.25968799 0.63739097
0.51134002 0.25927401 0.61966997
0.5 0.252873 0.63575399
0.51134002 0.254619 0.636172
0.53490102 0.28168201 0.62695098
0.52968901 0.271952 0.62379098
0.52157003 0.264231 0.62128103
0.52157003 0.25642201 0.65380901
0.52968901 0.267582 0.63928801
0.51134002 0.25127399 0.652991
0.53490102 0.277529 0.64167303
0.52157003 0.25968799 0.63739097
0.48866001 0.74917799 0.73212802
0.48866001 0.75085503 0.74629402
0.47843 0.74565798 0.746705
0.5 0.75095201 0.73184597
0.51134002 0.75141501 0.76055002
0.53669697 0.71470702 0.737589
0.52157003 0.68646401 0.75136101
0.47843 0.68646401 0.75136101
0.463303 0.714706 0.737589
0.5 0.75321102 0.76055002
0.48866001 0.75141501 0.76055002
0.5 0.75264502 0.74615401
0.5 0.39027601 0.56199598
0.51134002 0.389337 0.56046599
0.51134002 0.37963599 0.56694698
0.53669697 0.37110099 0.53070801
0.53490102 0.37702599 0.54037797
0.52968901 0.393464 0.54288799
0.53490102 0.38881999 0.53377301
0.52968901 0.38237199 0.549101
0.52041203 0.45552701 0.58623898
0.52157003 0.39715001 0.55012101
0.51134002 0.39951599 0.55476701
0.53669697 0.38367099 0.52367002
0.53882599 0.46490899 0.58623898
0.52157003 0.38661301 0.55602199
0.47254601 0.55613601 0.88065302
0.48254901 0.71084398 0.86572498
0.47900701 0.70126098 0.85989398
0.485156 0.70572901 0.86572498
0.474289 0.69783401 0.85229403
0.45372 0.55197299 0.86697298
0.474051 0.71651399 0.85989398
0.46821901 0.71651399 0.85229403
0.46977499 0.70669299 0.85229403
0.48165101 0.71651399 0.86572498
0.46221301 0.54580301 0.88065302
0.47532099 0.70849502 0.85989398
0.43717799 0.49793699 0.476147
0.43717799 0.53876102 0.476147
0.433945 0.51834899 0.48532099
0.433945 0.51834899 0.476147
0.51134002 0.68161201 0.76055002
0.52041203 0.58117098 0.76055002
0.47843 0.68682498 0.76055002
0.51134002 0.68126798 0.751773
0.5 0.67981601 0.76055002
0.52968901 0.69455802 0.750727
0.52968901 0.69494301 0.76055002
0.52157003 0.68682498 0.76788998
0.52157003 0.68682498 0.76055002
0.56282198 0.49793601 0.76972502
0.56282198 0.49793601 0.77889901
0.55343997 0.47952199 0.76972502
0.53669697 0.28348601 0.77522898
0.53490102 0.294826 0.78256899
0.5 0.32018301 0.77522898
0.52157003 0.31317499 0.77522898
0.52968901 0.30505601 0.77522898
0.55343997 0.47952199 0.77889901
0.53490102 0.294826 0.77522898
0.56282198 0.53876102 0.191743
0.566055 0.51834899 0.182569
0.53882599 0.57178801 0.182569
0.53490102 0.72348499 0.72363698
0.56282198 0.53876102 0.17339499
0.53490102 0.72011501 0.711685
0.53490102 0.71581697 0.700037
0.53490102 0.71061897 0.68875998
0.55343997 0.55717498 0.182569
0.53490102 0.72736698 0.74814302
0.56282198 0.53876102 0.182569
0.53882599 0.46490899 0.73302799
0.52968901 0.30505601 0.73119301
0.55343997 0.47952199 0.73302799
0.52157003 0.31317499 0.73853201
0.52968901 0.30505601 0.74587202
0.55343997 0.47952199 0.74220198
0.53490102 0.294826 0.73853201
0.53882599 0.46490899 0.74220198
0.52968901 0.30505601 0.73853201
0.46117401 0.46490899 0.69633001
0.47843 0.31317499 0.69449502
0.47031099 0.30505601 0.69449502
0.479588 0.45552701 0.68715602
0.43717799 0.49793699 0.68715602
0.46117401 0.46490899 0.67798197
0.47843 0.313649 0.67509001
0.47031099 0.30555499 0.67445099
0.47031099 0.30505601 0.68715602
0.44656 0.47952199 0.68715602
0.47843 0.31317499 0.68715602
0.46117401 0.46490899 0.68715602
0.43717799 0.53876102 0.22844
0.44656 0.55717498 0.237615
0.44656 0.55717498 0.219266
0.47031099 0.719733 0.68411702
0.47031099 0.713274 0.672584
0.46117401 0.57178801 0.22844
0.44656 0.55717498 0.22844
0.48866001 0.68772298 0.62239301
0.479588 0.58117098 0.41192701
0.48866001 0.67651999 0.61356002
0.47843 0.68433797 0.62635601
0.46117401 0.57178801 0.421101
0.47843 0.67345601 0.61777598
0.479588 0.58117098 0.43027499
0.5 0.58440399 0.421101
0.479588 0.58117098 0.421101
0.5 0.71651399 0.87064201
0.49706501 0.70748103 0.86939102
0.49441701 0.70883 0.86939102
0.49096701 0.713579 0.86939102
0.48058701 0.54506803 0.89114898
0.48979399 0.54975998 0.89114898
0.494717 0.53460801 0.89775002
0.48921499 0.70166898 0.86572498
0.49231601 0.710931 0.86939102
0.53490102 0.59091401 0.62677097
0.53490102 0.58035201 0.62551898
0.52041203 0.58117098 0.641285
0.53490102 0.58213103 0.60290998
0.53882599 0.57178801 0.60458702
0.52041203 0.58117098 0.58623898
0.53882599 0.57178801 0.62293601
0.43717799 0.49793699 0.641285
0.43717799 0.49793699 0.63211
0.46509901 0.31358901 0.60900199
0.48866001 0.334582 0.619699
0.48866001 0.329698 0.63029402
0.47843 0.32993799 0.61733198
0.47843 0.27703199 0.59037799
0.47031099 0.32270399 0.613648
0.44656 0.47952199 0.65045899
0.44656 0.47952199 0.641285
0.43717799 0.49793699 0.65045899
0.46509901 0.30325201 0.63396001
0.47031099 0.31738099 0.625193
0.47843 0.27002501 0.60557801
0.47031099 0.31298101 0.637119
0.47843 0.32070199 0.63962901
0.46509901 0.30792999 0.62127697
0.47031099 0.26191601 0.76788998
0.46509901 0.27214599 0.77522898
0.47843 0.25379801 0.76788998
0.463303 0.28348601 0.76788998
0.46509901 0.27214599 0.76055002
0.46509901 0.27214599 0.76788998
0.490502 0.71651399 0.86939102
0.48995101 0.53218001 0.89775002
0.49096701 0.71944898 0.86939102
0.5 0.55137599 0.89114898
0.5 0.51834899 0.89999998
0.49441701 0.72419798 0.86939102
0.49231601 0.72209698 0.86939102
0.49706501 0.72554702 0.86939102
0.5 0.53544497 0.89775002
0.52157003 0.25379699 0.78990799
0.52968901 0.26191601 0.78256899
0.52157003 0.25379699 0.77522898
0.51134002 0.248585 0.78256899
0.53490102 0.27214599 0.78256899
0.52157003 0.25379699 0.78256899
0.53882599 0.46490899 0.21009199
0.55343997 0.47952199 0.21009199
0.55343997 0.47952199 0.20091701
0.53882599 0.46490899 0.191743
0.55343997 0.47952199 0.191743
0.52157003 0.30487299 0.54870802
0.53882599 0.46490899 0.20091701
0.55343997 0.47952199 0.28348601
0.52968901 0.333799 0.53122902
0.55343997 0.47952199 0.27431199
0.53490102 0.32921001 0.54939401
0.53490102 0.34044299 0.53900898
0.55343997 0.47952199 0.29266101
0.55343997 0.47952199 0.24678899
0.53490102 0.31882501 0.560628
0.55343997 0.47952199 0.255963
0.55343997 0.47952199 0.265138
0.53882599 0.46490899 0.24678899
0.55343997 0.47952199 0.237615
0.55343997 0.47952199 0.219266
0.43717799 0.49793699 0.558716
0.43717799 0.49793699 0.56788999
0.43717799 0.49793699 0.494495
0.43717799 0.49793699 0.48532099
0.46509901 0.33607101 0.57535398
0.46509901 0.327703 0.585971
0.43717799 0.49793699 0.60458702
0.48866001 0.29029399 0.55879301
0.48866001 0.35398701 0.590657
0.43717799 0.49793699 0.51284403
0.43717799 0.49793699 0.52201802
0.43717799 0.49793699 0.53119302
0.43717799 0.49793699 0.54036701
0.43717799 0.49793699 0.549541
0.43717799 0.49793699 0.57706398
0.43717799 0.49793699 0.58623898
0.46509901 0.34524599 0.565431
0.479588 0.45552701 0.118349
0.52041203 0.45552701 0.109174
0.53882599 0.57178801 0.118349
0.53882599 0.46490899 0.118349
0.56282198 0.49793601 0.118349
0.52041203 0.45552701 0.12752301
0.566055 0.51834899 0.118349
0.5 0.45229301 0.118349
0.51134002 0.30090901 0.54532498
0.52041203 0.45552701 0.118349
0.479588 0.58117098 0.21009199
0.48866001 0.71671498 0.653754
0.5 0.58440399 0.20091701
0.48866001 0.72464103 0.665618
0.47843 0.72019702 0.66834098
0.479588 0.58117098 0.191743
0.479588 0.58117098 0.20091701
0.52157003 0.73276901 0.69301701
0.53669697 0.70932901 0.71518898
0.52157003 0.73756498 0.70601499
0.51134002 0.73758399 0.69102001
0.5 0.73924398 0.69033402
0.53882599 0.57178801 0.1
0.51134002 0.742522 0.704404
0.50567001 0.26603499 0.86572498
0.50801897 0.258807 0.85989398
0.5 0.27398801 0.86939102
0.49432999 0.26603499 0.86572498
0.491981 0.258807 0.85989398
0.5 0.25753701 0.85989398
0.490179 0.253261 0.85229403
0.509821 0.253261 0.85229403
0.51095301 0.24977399 0.84344202
0.51078498 0.26864201 0.86572498
0.50293499 0.27445301 0.86939102
0.48921499 0.26864201 0.86572498
0.49706501 0.27445301 0.86939102
0.5 0.26513699 0.86572498
0.53490102 0.36517599 0.521038
0.53490102 0.35245699 0.52953798
0.53669697 0.32744801 0.56799299
0.53669697 0.337228 0.55741298
0.53669697 0.31852901 0.57930601
0.53669697 0.310525 0.59128499
0.53669697 0.30348501 0.60385299
0.566055 0.51834899 0.43944901
0.52041203 0.45552701 0.43944901
0.53882599 0.46490899 0.43944901
0.56282198 0.49793601 0.43027499
0.56282198 0.49793601 0.43944901
0.52968901 0.30505601 0.81192702
0.55343997 0.47952199 0.81559598
0.53490102 0.294826 0.81926602
0.47843 0.31317499 0.77522898
0.47031099 0.30505601 0.78256899
0.47843 0.31317499 0.78256899
0.46117401 0.46490899 0.788073
0.44656 0.47952199 0.77889901
0.47031099 0.30505601 0.77522898
0.46117401 0.46490899 0.76972502
0.479588 0.45552701 0.77889901
0.43717799 0.49793699 0.77889901
0.46117401 0.46490899 0.77889901
0.46117401 0.57178801 0.82477099
0.47031099 0.69494402 0.81926602
0.44656 0.55717498 0.81559598
0.46509901 0.70517403 0.82660502
0.43717799 0.53876102 0.82477099
0.46509901 0.70517403 0.81926602
0.44656 0.55717498 0.83394498
0.47031099 0.69494402 0.82660502
0.44656 0.55717498 0.82477099
0.43717799 0.49793699 0.788073
0.46509901 0.294826 0.78256899
0.463303 0.28348601 0.78256899
0.463303 0.28348601 0.77522898
0.433945 0.51834899 0.77889901
0.43717799 0.53876102 0.77889901
0.46117401 0.57178801 0.77889901
0.43717799 0.49793699 0.76972502
0.46509901 0.294826 0.77522898
0.52041203 0.45552701 0.36605501
0.566055 0.51834899 0.35688099
0.53882599 0.57178801 0.36605501
0.56282198 0.49793601 0.36605501
0.566055 0.51834899 0.375229
0.56282198 0.53876102 0.36605501
0.566055 0.51834899 0.36605501
0.5 0.58694702 0.65181297
0.5 0.58440399 0.65963298
0.51134002 0.587228 0.65003997
0.48866001 0.587228 0.65003997
0.51134002 0.60430002 0.65414
0.5 0.58440399 0.66880703
0.5 0.60374498 0.655846
0.48866001 0.60430002 0.65414
0.48866001 0.59584397 0.65175402
0.5 0.58440399 0.65045899
0.51134002 0.59584397 0.65175402
0.5 0.59542501 0.65350097
0.53490102 0.27214599 0.70917398
0.52157003 0.25379699 0.71651399
0.51134002 0.248585 0.70917398
0.52968901 0.26191601 0.70917398
0.52157003 0.25379699 0.70183498
0.52157003 0.25379699 0.70917398
0.433945 0.51834899 0.43027499
0.43717799 0.53876102 0.43944901
0.433945 0.51834899 0.43944901
0.53490102 0.365787 0.54788601
0.53490102 0.35517299 0.55625701
0.55343997 0.47952199 0.59541303
0.55343997 0.47952199 0.58623898
0.463303 0.67352003 0.65675598
0.46509901 0.665501 0.664774
0.44656 0.55717498 0.69633001
0.46117401 0.57178801 0.68715602
0.47031099 0.651048 0.66533202
0.46509901 0.65769202 0.657556
0.43717799 0.53876102 0.68715602
0.463303 0.68134397 0.665218
0.46509901 0.67272103 0.672584
0.52968901 0.40501001 0.53756303
0.52157003 0.408117 0.54506397
0.55343997 0.47952199 0.558716
0.52157003 0.38539401 0.49020901
0.52968901 0.38850099 0.49770999
0.51134002 0.367827 0.49257201
0.5 0.36701101 0.49097201
0.52157003 0.355589 0.505395
0.56282198 0.49793601 0.46697301
0.56282198 0.49793601 0.476147
0.56282198 0.49793601 0.48532099
0.56282198 0.49793601 0.494495
0.56282198 0.49793601 0.51284403
0.56282198 0.49793601 0.52201802
0.56282198 0.49793601 0.53119302
0.56282198 0.49793601 0.54036701
0.56282198 0.49793601 0.549541
0.55343997 0.47952199 0.549541
0.53490102 0.401095 0.52811402
0.53669697 0.39675501 0.51763701
0.55343997 0.47952199 0.54036701
0.43717799 0.53876102 0.69633001
0.46509901 0.67930502 0.68093598
0.47031099 0.67102897 0.68695098
0.44656 0.55717498 0.70550501
0.463303 0.68848002 0.674272
0.5 0.65879101 0.69583899
0.47031099 0.66494203 0.67922598
0.47031099 0.65826797 0.67200702
0.433945 0.51834899 0.375229
0.433945 0.51834899 0.35688099
0.43717799 0.53876102 0.36605501
0.433945 0.51834899 0.36605501
0.51134002 0.61254197 0.65717798
0.51134002 0.62052101 0.66085899
0.5 0.61970502 0.66245902
0.48866001 0.61254197 0.65717798
0.48866001 0.62052101 0.66085899
0.5 0.58440399 0.67798197
0.5 0.61185497 0.65884
0.463303 0.61508501 0.620947
0.44656 0.55717498 0.65045899
0.44656 0.55717498 0.641285
0.463303 0.625898 0.62493598
0.44656 0.55717498 0.63211
0.566055 0.51834899 0.43027499
0.56282198 0.49793601 0.421101
0.52041203 0.45552701 0.43027499
0.53882599 0.46490899 0.43027499
0.55343997 0.47952199 0.43027499
0.5 0.71816802 0.65270102
0.48866001 0.66512501 0.702088
0.51134002 0.66512501 0.702088
0.52968901 0.713274 0.672584
0.51134002 0.71671498 0.653754
0.51134002 0.72464103 0.665618
0.5 0.58440399 0.17339499
0.5 0.58440399 0.182569
0.5 0.58440399 0.16422001
0.5 0.58440399 0.155046
0.5 0.58440399 0.118349
0.5 0.58440399 0.12752301
0.5 0.58440399 0.13669699
0.5 0.58440399 0.145872
0.5 0.73321199 0.677248
0.48866001 0.73161203 0.67806602
0.5 0.58440399 0.191743
0.5 0.72617197 0.66467899
0.46117401 0.57178801 0.182569
0.52041203 0.58117098 0.182569
0.479588 0.58117098 0.182569
0.46117401 0.46490899 0.66880703
0.43717799 0.49793699 0.67798197
0.44656 0.47952199 0.67798197
0.479588 0.45552701 0.67798197
0.47843 0.31506801 0.66309702
0.47031099 0.30704999 0.66182798
0.46117401 0.57178801 0.43944901
0.46117401 0.57178801 0.457798
0.47843 0.66193402 0.61007702
0.479588 0.58117098 0.44862401
0.5 0.58440399 0.44862401
0.53882599 0.57178801 0.44862401
0.44656 0.55717498 0.44862401
0.47031099 0.66868401 0.624345
0.47843 0.25379801 0.81192702
0.46509901 0.27214599 0.80458701
0.47031099 0.26191601 0.81192702
0.463303 0.28348601 0.81192702
0.46509901 0.27214599 0.81926602
0.46509901 0.27214599 0.81192702
0.46117401 0.46490899 0.22844
0.43717799 0.49793699 0.22844
0.44656 0.47952199 0.219266
0.566055 0.51834899 0.549541
0.53669697 0.347808 0.54763299
0.56282198 0.49793601 0.558716
0.53669697 0.35912201 0.53871202
0.47031099 0.69494402 0.78990799
0.46509901 0.70517403 0.79724801
0.46509901 0.70517403 0.78990799
0.47031099 0.69494402 0.79724801
0.46117401 0.57178801 0.79724801
0.44656 0.55717498 0.806422
0.47031099 0.69494402 0.80458701
0.44656 0.55717498 0.788073
0.43717799 0.53876102 0.79724801
0.46509901 0.70517403 0.80458701
0.44656 0.55717498 0.79724801
0.46509901 0.70455199 0.67792702
0.433945 0.51834899 0.31100899
0.43717799 0.53876102 0.301835
0.44656 0.55717498 0.31100899
0.43717799 0.53876102 0.31100899
0.47843 0.63726002 0.59750497
0.48866001 0.63925499 0.59268999
0.479588 0.58117098 0.52201802
0.5 0.58440399 0.51284403
0.479588 0.58117098 0.50366998
0.46117401 0.57178801 0.51284403
0.479588 0.58117098 0.51284403
0.55343997 0.47952199 0.35688099
0.52968901 0.346443 0.52126199
0.55343997 0.47952199 0.36605501
0.55343997 0.47952199 0.375229
0.55343997 0.47952199 0.384404
0.56282198 0.49793601 0.384404
0.56282198 0.49793601 0.39357799
0.55343997 0.47952199 0.41192701
0.55343997 0.47952199 0.40275201
0.56282198 0.49793601 0.41192701
0.56282198 0.49793601 0.40275201
0.56282198 0.49793601 0.457798
0.52968901 0.35983101 0.51231599
0.52968901 0.37387899 0.504448
0.55343997 0.47952199 0.39357799
0.47532099 0.29150501 0.85989398
0.46977499 0.29330701 0.85229403
0.474051 0.28348601 0.85989398
0.466288 0.272533 0.84344202
0.464553 0.28348601 0.84344202
0.43931901 0.49863201 0.85104197
0.466288 0.29444 0.84344202
0.436196 0.51834899 0.85104197
0.44279501 0.51834899 0.86697298
0.45329201 0.51834899 0.88065302
0.44559401 0.50067103 0.86697298
0.47532099 0.27546701 0.85989398
0.46977499 0.27366599 0.85229403
0.46821901 0.28348601 0.85229403
0.53669697 0.28348601 0.76788998
0.52968901 0.30505601 0.76788998
0.47031099 0.30505601 0.73853201
0.47031099 0.30505601 0.74587202
0.47843 0.31317499 0.74587202
0.47843 0.31317499 0.73853201
0.479588 0.45552701 0.74220198
0.46117401 0.46490899 0.75137597
0.44656 0.47952199 0.74220198
0.46117401 0.46490899 0.73302799
0.43717799 0.49793699 0.74220198
0.46117401 0.46490899 0.74220198
0.46509901 0.43649501 0.49472699
0.479588 0.45552701 0.457798
0.47843 0.45024699 0.474639
0.46117401 0.46490899 0.46697301
0.44656 0.47952199 0.457798
0.46117401 0.46490899 0.457798
0.5 0.24678899 0.73853201
0.48866001 0.248585 0.74587202
0.47843 0.25379801 0.73853201
0.48866001 0.248585 0.73119301
0.48866001 0.248585 0.73853201
0.5 0.24678899 0.70183498
0.48866001 0.248585 0.70917398
0.47843 0.25379801 0.70183498
0.48866001 0.248585 0.69449502
0.48866001 0.248585 0.70183498
0.479588 0.45552701 0.32935801
0.5 0.45229301 0.32018301
0.48866001 0.35286501 0.50095099
0.479588 0.45552701 0.31100899
0.52041203 0.45552701 0.32018301
0.5 0.67757499 0.61210603
0.5 0.66559601 0.60410303
0.5 0.58440399 0.476147
0.5 0.65302598 0.59706402
0.48866001 0.65221 0.59866399
0.47843 0.64984399 0.603306
0.5 0.58440399 0.457798
0.479588 0.58117098 0.46697301
0.5 0.58440399 0.46697301
0.479588 0.58117098 0.457798
0.479588 0.58117098 0.476147
0.47031099 0.65769202 0.61700201
0.48866001 0.66465801 0.60563302
0.52157003 0.70391899 0.64593798
0.53882599 0.57178801 0.29266101
0.52157003 0.71249801 0.65681797
0.5 0.58440399 0.301835
0.46117401 0.57178801 0.301835
0.53882599 0.57178801 0.31100899
0.55343997 0.55717498 0.301835
0.56282198 0.53876102 0.301835
0.566055 0.51834899 0.301835
0.52041203 0.45552701 0.301835
0.52041203 0.58117098 0.301835
0.52968901 0.70592999 0.66159302
0.53882599 0.57178801 0.301835
0.5 0.67947698 0.751912
0.48866001 0.68126702 0.751773
0.5 0.58440399 0.76055002
0.48866001 0.68161201 0.76788998
0.479588 0.58117098 0.76055002
0.48866001 0.68161201 0.76055002
0.48866001 0.248585 0.81192702
0.5 0.24678899 0.81926602
0.48866001 0.248585 0.81926602
0.47031099 0.26191601 0.80458701
0.463303 0.28348601 0.80458701
0.46509901 0.27214599 0.79724801
0.47843 0.25379801 0.80458701
0.5 0.67981601 0.83394498
0.51095301 0.68280202 0.84344202
0.5 0.68106699 0.84344202
0.52041203 0.58117098 0.83394498
0.52157003 0.68682498 0.83394498
0.51134002 0.68161201 0.82660502
0.52083498 0.687837 0.84344202
0.51134002 0.68161201 0.83394498
0.52041203 0.58117098 0.13669699
0.53882599 0.57178801 0.12752301
0.52157003 0.72019702 0.66834098
0.52041203 0.58117098 0.12752301
0.433945 0.51834899 0.57706398
0.433945 0.51834899 0.59541303
0.43717799 0.53876102 0.58623898
0.433945 0.51834899 0.58623898
0.50801897 0.30816501 0.85989398
0.509821 0.31371099 0.85229403
0.5 0.315267 0.85229403
0.5 0.30943501 0.85989398
0.53882599 0.57178801 0.155046
0.479588 0.45552701 0.155046
0.52041203 0.45552701 0.145872
0.56282198 0.49793601 0.155046
0.53882599 0.46490899 0.155046
0.5 0.45229301 0.155046
0.52041203 0.45552701 0.155046
0.53882599 0.57178801 0.41192701
0.52041203 0.58117098 0.41192701
0.5 0.58440399 0.40275201
0.5 0.68888998 0.62102801
0.46117401 0.57178801 0.41192701
0.5 0.58440399 0.41192701
0.491981 0.69183499 0.85989398
0.48474801 0.695521 0.85989398
0.49432999 0.699063 0.86572498
0.47916499 0.687837 0.84344202
0.5 0.698165 0.86572498
0.47843 0.68682498 0.83394498
0.48028299 0.57902998 0.85104197
0.5 0.58215302 0.85104197
0.490179 0.686288 0.85229403
0.48131999 0.69080299 0.85229403
0.5 0.68473297 0.85229403
0.5 0.69056499 0.85989398
0.48904601 0.68280202 0.84344202
0.43717799 0.53876102 0.20091701
0.433945 0.51834899 0.21009199
0.46117401 0.57178801 0.21009199
0.44656 0.55717498 0.21009199
0.43717799 0.53876102 0.219266
0.43717799 0.49793699 0.21009199
0.43717799 0.53876102 0.21009199
0.53882599 0.46490899 0.788073
0.55343997 0.47952199 0.788073
0.52968901 0.30505601 0.78990799
0.52157003 0.31317499 0.78256899
0.53882599 0.46490899 0.77889901
0.52968901 0.30505601 0.78256899
0.55343997 0.55717498 0.17339499
0.52041203 0.58117098 0.17339499
0.46117401 0.57178801 0.17339499
0.52041203 0.45552701 0.17339499
0.53882599 0.57178801 0.17339499
0.48866001 0.707883 0.642551
0.5 0.58440399 0.27431199
0.5 0.70924902 0.64138699
0.53882599 0.57178801 0.28348601
0.46117401 0.57178801 0.28348601
0.52041203 0.58117098 0.28348601
0.5 0.58440399 0.29266101
0.479588 0.58117098 0.28348601
0.51134002 0.707883 0.642551
0.5 0.58440399 0.28348601
0.48866001 0.31838799 0.77522898
0.47843 0.25379801 0.77522898
0.479588 0.58117098 0.301835
0.5 0.58440399 0.31100899
0.479588 0.58117098 0.31100899
0.479588 0.58117098 0.65963298
0.479588 0.58117098 0.66880703
0.47328001 0.53776199 0.89114898
0.48616901 0.52839798 0.89775002
0.47843 0.31317499 0.76788998
0.47843 0.31317499 0.76055002
0.47031099 0.30505601 0.76055002
0.479588 0.45552701 0.76055002
0.47843 0.31317499 0.75321102
0.47031099 0.30505601 0.75321102
0.43717799 0.49793699 0.76055002
0.47031099 0.30505601 0.76788998
0.44656 0.47952199 0.76055002
0.46117401 0.46490899 0.76055002
0.50768399 0.72209698 0.86939102
0.50903302 0.71944898 0.86939102
0.51745099 0.722184 0.86572498
0.53302801 0.51834899 0.89114898
0.51709598 0.51834899 0.89775002
0.51383102 0.52839798 0.89775002
0.53141099 0.52855498 0.89114898
0.52671999 0.53776199 0.89114898
0.51626003 0.52363199 0.89775002
0.46509901 0.294826 0.83394498
0.47132301 0.30432099 0.84344202
0.485156 0.29427099 0.86572498
0.46509901 0.27214599 0.83394498
0.433945 0.51834899 0.83394498
0.43717799 0.49793699 0.83394498
0.463303 0.28348601 0.83394498
0.48374 0.52363199 0.89775002
0.48254901 0.722184 0.86572498
0.485156 0.72729897 0.86572498
0.49432999 0.73396403 0.86572498
0.48921499 0.73135799 0.86572498
0.56282198 0.49793601 0.12752301
0.56282198 0.49793601 0.13669699
0.56282198 0.49793601 0.191743
0.56282198 0.49793601 0.182569
0.56282198 0.49793601 0.219266
0.56282198 0.49793601 0.237615
0.56282198 0.49793601 0.24678899
0.56282198 0.49793601 0.255963
0.5 0.32423899 0.652888
0.56282198 0.49793601 0.20091701
0.56282198 0.49793601 0.145872
0.53490102 0.27454501 0.65667897
0.56282198 0.49793601 0.1
0.56282198 0.49793601 0.109174
0.52968901 0.26444101 0.65507901
0.514844 0.29427099 0.86572498
0.53178102 0.28348601 0.85229403
0.53022498 0.27366501 0.85229403
0.53022498 0.29330701 0.85229403
0.51834899 0.28348601 0.86572498
0.514844 0.272701 0.86572498
0.53669697 0.28348601 0.83394498
0.52867699 0.262651 0.84344202
0.53371203 0.27253199 0.84344202
0.56380397 0.51834899 0.85104197
0.566055 0.51834899 0.83394498
0.53490102 0.27214599 0.83394498
0.535447 0.28348601 0.84344202
0.479588 0.45552701 0.109174
0.5 0.45229301 0.1
0.48866001 0.30090901 0.54532498
0.5 0.29954401 0.54415798
0.5 0.45229301 0.109174
0.53882599 0.57178801 0.43944901
0.52041203 0.45552701 0.44862401
0.566055 0.51834899 0.44862401
0.52041203 0.58117098 0.44862401
0.52157003 0.67345601 0.61777598
0.52157003 0.66193402 0.61007702
0.55343997 0.55717498 0.44862401
0.56282198 0.53876102 0.44862401
0.53882599 0.57178801 0.457798
0.5 0.58440399 0.375229
0.53882599 0.57178801 0.375229
0.52041203 0.58117098 0.36605501
0.52157003 0.69451302 0.63576102
0.51134002 0.69819897 0.63207698
0.52041203 0.58117098 0.384404
0.52041203 0.58117098 0.375229
0.52157003 0.25379699 0.80458701
0.53490102 0.27214599 0.81192702
0.52968901 0.26191601 0.80458701
0.53669697 0.28348601 0.80458701
0.53490102 0.27214599 0.79724801
0.51134002 0.248585 0.80458701
0.53490102 0.27214599 0.80458701
0.5 0.58440399 0.494495
0.52041203 0.58117098 0.494495
0.5 0.58440399 0.48532099
0.51134002 0.66465801 0.60563302
0.52968901 0.65769202 0.61700201
0.52157003 0.62288702 0.65621299
0.5 0.63994199 0.59103101
0.51134002 0.63925499 0.59268999
0.52968901 0.64615798 0.61054301
0.52157003 0.64984399 0.603306
0.52157003 0.63726002 0.59750497
0.53490102 0.630238 0.61445898
0.52041203 0.58117098 0.476147
0.52041203 0.58117098 0.50366998
0.52041203 0.58117098 0.48532099
0.51134002 0.65221 0.59866399
0.463303 0.28348601 0.74587202
0.46509901 0.27214599 0.75321102
0.46509901 0.27214599 0.73853201
0.47031099 0.26191601 0.74587202
0.47843 0.25379801 0.74587202
0.46509901 0.27214599 0.74587202
0.43717799 0.49793699 0.65963298
0.479588 0.45552701 0.65045899
0.46117401 0.46490899 0.65963298
0.47843 0.324882 0.62830102
0.479588 0.45552701 0.66880703
0.52041203 0.45552701 0.65963298
0.5 0.45229301 0.65963298
0.48866001 0.32565999 0.64124
0.479588 0.45552701 0.65963298
0.52968901 0.26191601 0.73853201
0.52157003 0.25379699 0.74587202
0.53490102 0.27214599 0.74587202
0.52968901 0.26191601 0.75321102
0.52968901 0.26191601 0.74587202
0.44656 0.47952199 0.46697301
0.433945 0.51834899 0.421101
0.43717799 0.53876102 0.43027499
0.44656 0.47952199 0.806422
0.47031099 0.30505601 0.81192702
0.46117401 0.46490899 0.81559598
0.56282198 0.49793601 0.35688099
0.56282198 0.49793601 0.338532
0.56282198 0.49793601 0.32935801
0.52968901 0.27752501 0.60868299
0.52157003 0.27002501 0.60557801
0.56282198 0.49793601 0.32018301
0.56282198 0.49793601 0.31100899
0.56282198 0.49793601 0.28348601
0.56282198 0.49793601 0.29266101
0.53490102 0.29338101 0.59870797
0.56282198 0.49793601 0.265138
0.56282198 0.49793601 0.27431199
0.56282198 0.49793601 0.301835
0.56282198 0.49793601 0.34770599
0.52968901 0.284266 0.59406197
0.55343997 0.47952199 0.1
0.53490102 0.28697601 0.612598
0.46509901 0.32019401 0.597211
0.44656 0.47952199 0.63211
0.47031099 0.343851 0.58200002
0.44656 0.47952199 0.61376101
0.46117401 0.46490899 0.62293601
0.47031099 0.33597901 0.59198499
0.43717799 0.49793699 0.62293601
0.44656 0.47952199 0.62293601
0.55343997 0.55717498 0.219266
0.52968901 0.71973401 0.68411702
0.55343997 0.55717498 0.20091701
0.55343997 0.55717498 0.21009199
0.56282198 0.53876102 0.40275201
0.56282198 0.53876102 0.384404
0.53490102 0.70455199 0.67792702
0.53490102 0.69765401 0.66760403
0.53490102 0.68996698 0.65785301
0.55343997 0.55717498 0.39357799
0.53882599 0.57178801 0.39357799
0.566055 0.51834899 0.39357799
0.56282198 0.53876102 0.39357799
0.566055 0.51834899 0.384404
0.52041203 0.45552701 0.39357799
0.566055 0.51834899 0.40275201
0.48866001 0.31838799 0.76055002
0.479588 0.45552701 0.76972502
0.48866001 0.31838799 0.76788998
0.5 0.58440399 0.79724801
0.48866001 0.68161201 0.78990799
0.479588 0.58117098 0.79724801
0.48866001 0.68161201 0.80458701
0.47843 0.68682498 0.79724801
0.5 0.67981601 0.79724801
0.48866001 0.68161201 0.79724801
0.5 0.45229301 0.46697301
0.51134002 0.44983801 0.46944201
0.52041203 0.45552701 0.457798
0.479588 0.45552701 0.46697301
0.53882599 0.57178801 0.46697301
0.566055 0.51834899 0.46697301
0.53882599 0.46490899 0.46697301
0.52157003 0.45024699 0.474639
0.52041203 0.45552701 0.46697301
0.46509901 0.70350599 0.739362
0.43717799 0.53876102 0.74220198
0.44656 0.55717498 0.75137597
0.433945 0.51834899 0.75137597
0.43717799 0.49793699 0.75137597
0.46117401 0.57178801 0.75137597
0.43717799 0.53876102 0.76055002
0.46509901 0.70475602 0.74992299
0.43717799 0.53876102 0.75137597
0.56282198 0.53876102 0.82477099
0.53490102 0.70517403 0.82660502
0.55343997 0.55717498 0.82477099
0.55343997 0.55717498 0.81559598
0.52968901 0.69494301 0.81926602
0.52157003 0.68682498 0.81926602
0.463303 0.71651399 0.81926602
0.47843 0.68682498 0.81926602
0.53490102 0.70517403 0.81926602
0.47843 0.30487299 0.54870802
0.46117401 0.46490899 0.155046
0.46117401 0.46490899 0.17339499
0.44656 0.47952199 0.16422001
0.43717799 0.49793699 0.16422001
0.479588 0.45552701 0.16422001
0.46117401 0.46490899 0.16422001
0.46509901 0.69854403 0.71869397
0.47031099 0.68541199 0.71263099
0.46117401 0.57178801 0.74220198
0.46117401 0.57178801 0.73302799
0.44656 0.55717498 0.73302799
0.47843 0.67791098 0.71573901
0.46509901 0.69486302 0.70871598
0.44656 0.55717498 0.74220198
0.47031099 0.688815 0.72185701
0.566055 0.51834899 0.34770599
0.53882599 0.57178801 0.35688099
0.56282198 0.53876102 0.34770599
0.52041203 0.45552701 0.34770599
0.53882599 0.57178801 0.338532
0.5 0.58440399 0.34770599
0.46117401 0.57178801 0.34770599
0.52968901 0.69774598 0.65121102
0.55343997 0.55717498 0.34770599
0.52041203 0.58117098 0.34770599
0.53882599 0.57178801 0.34770599
0.53882599 0.57178801 0.70550501
0.55343997 0.55717498 0.70550501
0.55343997 0.55717498 0.69633001
0.52968901 0.66494203 0.67922598
0.52157003 0.658768 0.68449903
0.52157003 0.65252697 0.67774701
0.52157003 0.64577502 0.67150801
0.52968901 0.651048 0.66533202
0.53882599 0.57178801 0.69633001
0.53490102 0.66550201 0.664774
0.53490102 0.67272103 0.672584
0.52968901 0.65826797 0.67200702
0.5 0.75321102 0.77522898
0.463303 0.71651399 0.78256899
0.53669697 0.71651399 0.78256899
0.46509901 0.72785401 0.78256899
0.5 0.75321102 0.78256899
0.52968901 0.30505601 0.79724801
0.53882599 0.46490899 0.79724801
0.53490102 0.294826 0.80458701
0.55343997 0.47952199 0.806422
0.55343997 0.47952199 0.79724801
0.52968901 0.30505601 0.80458701
0.46117401 0.57178801 0.219266
0.463303 0.71651399 0.78990799
0.463303 0.71651399 0.79724801
0.463303 0.71651399 0.80458701
0.433945 0.51834899 0.806422
0.463303 0.28348601 0.79724801
0.463303 0.28348601 0.78990799
0.43717799 0.49793699 0.79724801
0.433945 0.51834899 0.788073
0.433945 0.51834899 0.79724801
0.479588 0.58117098 0.68715602
0.5 0.62724698 0.666682
0.5 0.58440399 0.68715602
0.479588 0.58117098 0.67798197
0.47843 0.62288702 0.65621299
0.52968901 0.30505601 0.70917398
0.55343997 0.47952199 0.70550501
0.53490102 0.294826 0.70183498
0.52968901 0.30505601 0.69449502
0.52157003 0.31317499 0.70183498
0.55343997 0.47952199 0.69633001
0.53882599 0.46490899 0.70550501
0.53882599 0.46490899 0.69633001
0.52968901 0.30505601 0.70183498
0.46509901 0.294826 0.79724801
0.47843 0.25379801 0.78990799
0.47843 0.31317499 0.78990799
0.47031099 0.30505601 0.78990799
0.44656 0.47952199 0.79724801
0.44656 0.47952199 0.788073
0.46509901 0.294826 0.78990799
0.56282198 0.49793601 0.66880703
0.53490102 0.29694599 0.66022801
0.55343997 0.47952199 0.67798197
0.52968901 0.30704999 0.66182798
0.53882599 0.46490899 0.66880703
0.55343997 0.47952199 0.66880703
0.537503 0.56996697 0.85104197
0.56282198 0.53876102 0.83394498
0.53882599 0.57178801 0.83394498
0.560682 0.53806502 0.85104197
0.55440599 0.536026 0.86697298
0.55343997 0.55717498 0.83394498
0.52867699 0.695678 0.84344202
0.53371203 0.70556003 0.84344202
0.55161899 0.555852 0.85104197
0.47031099 0.69494402 0.77522898
0.47031099 0.69494402 0.76788998
0.46117401 0.57178801 0.76972502
0.43717799 0.53876102 0.76972502
0.44656 0.55717498 0.76055002
0.46509901 0.70517403 0.76788998
0.46509901 0.70517403 0.77522898
0.44656 0.55717498 0.77889901
0.44656 0.55717498 0.76972502
0.53490102 0.27214599 0.77522898
0.47843 0.25379801 0.78256899
0.53490102 0.27214599 0.78990799
0.53669697 0.28348601 0.78256899
0.52968901 0.32891601 0.60255402
0.52968901 0.33598 0.59198499
0.53882599 0.46490899 0.63211
0.55343997 0.47952199 0.641285
0.53490102 0.32019401 0.597211
0.53490102 0.327703 0.585971
0.55343997 0.47952199 0.62293601
0.56282198 0.49793601 0.63211
0.53490102 0.31358901 0.60900199
0.55343997 0.47952199 0.63211
0.56282198 0.53876102 0.35688099
0.56282198 0.53876102 0.375229
0.55343997 0.55717498 0.36605501
0.46117401 0.57178801 0.50366998
0.43717799 0.53876102 0.50366998
0.433945 0.51834899 0.50366998
0.44656 0.47952199 0.50366998
0.50801897 0.741193 0.85989398
0.509821 0.74673897 0.85229403
0.51867998 0.74222499 0.85229403
0.50567001 0.73396403 0.86572498
0.51078498 0.73135799 0.86572498
0.52099299 0.73176599 0.85989398
0.51525199 0.73750699 0.85989398
0.47843 0.25379801 0.79724801
0.46509901 0.67242098 0.64030802
0.463303 0.665057 0.64893198
0.46509901 0.641514 0.61965501
0.44656 0.55717498 0.58623898
0.43717799 0.53876102 0.57706398
0.46117401 0.57178801 0.58623898
0.46509901 0.66267002 0.63261998
0.46509901 0.681539 0.64873803
0.463303 0.69488299 0.68385297
0.463303 0.70051402 0.69390798
0.463303 0.70534003 0.70437801
0.463303 0.70932901 0.71518898
0.43717799 0.53876102 0.59541303
0.50903302 0.286421 0.86939102
0.51745099 0.277816 0.86572498
0.50768399 0.27790299 0.86939102
0.50558299 0.27580199 0.86939102
0.51004899 0.50451702 0.89775002
0.51383102 0.50830001 0.89775002
0.509498 0.28348601 0.86939102
0.53141099 0.50814199 0.89114898
0.51626003 0.51306498 0.89775002
0.52671999 0.49893501 0.89114898
0.50903302 0.28055099 0.86939102
0.51525199 0.26249301 0.85989398
0.52083498 0.25480899 0.84344202
0.525711 0.264806 0.85229403
0.51867998 0.25777501 0.85229403
0.47843 0.442913 0.53525102
0.47031099 0.441643 0.527233
0.47843 0.43106899 0.53760701
0.46509901 0.440043 0.51713002
0.46117401 0.46490899 0.54036701
0.46509901 0.42678601 0.51976502
0.47031099 0.41693801 0.53316301
0.46117401 0.46490899 0.558716
0.46117401 0.46490899 0.549541
0.46509901 0.41377601 0.523435
0.47031099 0.42917401 0.52971399
0.52041203 0.45552701 0.61376101
0.52968901 0.35248101 0.57266402
0.53490102 0.345247 0.565431
0.52968901 0.343851 0.58200002
0.53490102 0.33607101 0.57535797
0.5 0.323975 0.519728
0.47843 0.35822099 0.57840401
0.5 0.311279 0.53146398
0.51134002 0.312549 0.53273398
0.47843 0.367089 0.57020599
0.51134002 0.37047401 0.57417202
0.52157003 0.35002401 0.587273
0.51134002 0.35398701 0.590657
0.51134002 0.36190701 0.58209199
0.5 0.363177 0.58336198
0.52041203 0.45552701 0.62293601
0.53882599 0.46490899 0.62293601
0.52157003 0.35822099 0.57840401
0.53882599 0.46490899 0.36605501
0.56282198 0.49793601 0.375229
0.53490102 0.30085599 0.58535802
0.43717799 0.49793699 0.219266
0.46117401 0.46490899 0.219266
0.44656 0.47952199 0.21009199
0.48866001 0.25127399 0.652991
0.5 0.24950001 0.65271199
0.5 0.25756499 0.61911601
0.48866001 0.25927401 0.61966997
0.47843 0.264231 0.62128103
0.47843 0.25642201 0.65380901
0.48866001 0.254619 0.636172
0.56282198 0.49793601 0.73302799
0.53669697 0.28348601 0.73119301
0.5 0.32018301 0.73119301
0.52157003 0.31317499 0.73119301
0.52041203 0.45552701 0.182569
0.53882599 0.46490899 0.182569
0.50768399 0.710931 0.86939102
0.50293499 0.70748103 0.86939102
0.51020598 0.54975998 0.89114898
0.505283 0.53460801 0.89775002
0.51078498 0.70166898 0.86572498
0.50567001 0.699063 0.86572498
0.50558299 0.70883 0.86939102
0.44656 0.47952199 0.191743
0.44656 0.47952199 0.20091701
0.52157003 0.67406201 0.70738697
0.52968901 0.68129599 0.70370299
0.52157003 0.66956902 0.69936502
0.52157003 0.66446102 0.69172102
0.53882599 0.57178801 0.72385299
0.52968901 0.67102897 0.68694699
0.53882599 0.57178801 0.714679
0.55343997 0.55717498 0.72385299
0.55343997 0.55717498 0.714679
0.53490102 0.67930502 0.68093598
0.53669697 0.69488299 0.68385297
0.53490102 0.68521398 0.68978
0.53490102 0.69041097 0.69905698
0.52968901 0.67649102 0.69512302
0.43717799 0.49793699 0.70550501
0.43717799 0.53876102 0.70550501
0.433945 0.51834899 0.69633001
0.463303 0.28348601 0.70183498
0.433945 0.51834899 0.70550501
0.566055 0.51834899 0.41192701
0.56282198 0.53876102 0.421101
0.53882599 0.57178801 0.421101
0.52041203 0.45552701 0.421101
0.566055 0.51834899 0.421101
0.479588 0.45552701 0.145872
0.46117401 0.46490899 0.13669699
0.43717799 0.49793699 0.13669699
0.46117401 0.57178801 0.13669699
0.52041203 0.45552701 0.13669699
0.479588 0.45552701 0.12752301
0.5 0.45229301 0.13669699
0.479588 0.45552701 0.13669699
0.46509901 0.277529 0.64167303
0.46509901 0.27454501 0.65667897
0.47843 0.254455 0.67042899
0.46509901 0.27274701 0.67187202
0.47031099 0.262548 0.67106801
0.47031099 0.267582 0.63928801
0.47031099 0.26444101 0.65507901
0.51941299 0.54506803 0.89114898
0.53362399 0.56462801 0.86697298
0.55720502 0.51834899 0.86697298
0.54442197 0.53278202 0.88065302
0.54670799 0.51834899 0.88065302
0.52157003 0.33583799 0.60679603
0.52968901 0.32270399 0.613648
0.56282198 0.49793601 0.62293601
0.52157003 0.27703199 0.59037799
0.51134002 0.27238801 0.58801103
0.52157003 0.32993799 0.61733198
0.52041203 0.58117098 0.54036701
0.5 0.58440399 0.53119302
0.51134002 0.62586999 0.58775401
0.52041203 0.58117098 0.52201802
0.52157003 0.624259 0.59271199
0.53882599 0.57178801 0.53119302
0.52041203 0.58117098 0.53119302
0.53490102 0.641514 0.61965501
0.55343997 0.55717498 0.53119302
0.55343997 0.55717498 0.51284403
0.53882599 0.57178801 0.52201802
0.52968901 0.63415301 0.60500598
0.56282198 0.53876102 0.52201802
0.55343997 0.55717498 0.52201802
0.55343997 0.47952199 0.61376101
0.566055 0.51834899 0.61376101
0.56282198 0.49793601 0.61376101
0.43717799 0.53876102 0.27431199
0.43717799 0.53876102 0.265138
0.43717799 0.53876102 0.29266101
0.43717799 0.53876102 0.35688099
0.43717799 0.53876102 0.34770599
0.43717799 0.53876102 0.494495
0.43717799 0.53876102 0.51284403
0.43717799 0.53876102 0.155046
0.44656 0.55717498 0.155046
0.44656 0.55717498 0.145872
0.47031099 0.72526801 0.69612098
0.47843 0.73276901 0.69301701
0.48866001 0.73758399 0.69102001
0.5 0.67143601 0.718418
0.43717799 0.53876102 0.54036701
0.43717799 0.53876102 0.53119302
0.43717799 0.53876102 0.549541
0.43717799 0.53876102 0.558716
0.44656 0.55717498 0.13669699
0.43717799 0.53876102 0.13669699
0.44656 0.55717498 0.118349
0.43717799 0.53876102 0.12752301
0.44656 0.55717498 0.12752301
0.44656 0.55717498 0.109174
0.43717799 0.53876102 0.109174
0.44656 0.55717498 0.1
0.47031099 0.72984397 0.708525
0.43717799 0.53876102 0.52201802
0.43717799 0.53876102 0.48532099
0.43717799 0.53876102 0.46697301
0.43717799 0.53876102 0.421101
0.43717799 0.53876102 0.41192701
0.43717799 0.53876102 0.40275201
0.43717799 0.53876102 0.39357799
0.43717799 0.53876102 0.384404
0.43717799 0.53876102 0.375229
0.43717799 0.53876102 0.32935801
0.43717799 0.53876102 0.338532
0.43717799 0.53876102 0.28348601
0.43717799 0.53876102 0.191743
0.43717799 0.53876102 0.182569
0.43717799 0.53876102 0.17339499
0.43717799 0.53876102 0.16422001
0.43717799 0.53876102 0.145872
0.43717799 0.53876102 0.118349
0.43717799 0.53876102 0.1
0.5 0.67981601 0.81926602
0.46117401 0.57178801 0.81559598
0.479588 0.58117098 0.81559598
0.47843 0.68682498 0.81192702
0.46117401 0.57178801 0.35688099
0.479588 0.45552701 0.36605501
0.46117401 0.57178801 0.375229
0.5 0.58440399 0.36605501
0.479588 0.58117098 0.36605501
0.47843 0.69451302 0.63576102
0.47031099 0.68877202 0.64150101
0.44656 0.55717498 0.36605501
0.46117401 0.57178801 0.36605501
0.51134002 0.41011101 0.54988301
0.53882599 0.57178801 0.57706398
0.566055 0.51834899 0.57706398
0.56282198 0.49793601 0.57706398
0.53882599 0.46490899 0.57706398
0.51134002 0.42105699 0.54584199
0.5 0.45229301 0.57706398
0.479588 0.45552701 0.57706398
0.52041203 0.45552701 0.56788999
0.52157003 0.41944599 0.54088402
0.52041203 0.45552701 0.57706398
0.44656 0.47952199 0.58623898
0.52157003 0.31317499 0.75321102
0.53882599 0.46490899 0.76055002
0.44656 0.55717498 0.20091701
0.44656 0.55717498 0.255963
0.43717799 0.53876102 0.56788999
0.44656 0.55717498 0.182569
0.44656 0.55717498 0.17339499
0.44656 0.55717498 0.16422001
0.44656 0.55717498 0.191743
0.51134002 0.68161201 0.76788998
0.52041203 0.58117098 0.76972502
0.52041203 0.58117098 0.75137597
0.53669697 0.71245801 0.72628301
0.53669697 0.68848002 0.674272
0.53669697 0.68134397 0.665218
0.53669697 0.67352003 0.65675598
0.566055 0.51834899 0.67798197
0.56282198 0.53876102 0.68715602
0.53882599 0.57178801 0.67798197
0.53669697 0.70051497 0.69390798
0.53669697 0.70534003 0.70437801
0.56282198 0.53876102 0.67798197
0.51134002 0.34028301 0.609519
0.53882599 0.46490899 0.641285
0.52041203 0.45552701 0.63211
0.51134002 0.34676501 0.59982002
0.5 0.34821701 0.60087699
0.51134002 0.29029399 0.55879301
0.47843 0.34254801 0.59675598
0.52157003 0.34254801 0.59675598
0.55343997 0.55717498 0.255963
0.55343997 0.55717498 0.24678899
0.55343997 0.55717498 0.31100899
0.55343997 0.55717498 0.29266101
0.55343997 0.55717498 0.28348601
0.55343997 0.55717498 0.27431199
0.55343997 0.55717498 0.265138
0.53882599 0.57178801 0.24678899
0.55343997 0.55717498 0.237615
0.55343997 0.55717498 0.22844
0.53882599 0.57178801 0.22844
0.55343997 0.55717498 0.16422001
0.53882599 0.57178801 0.237615
0.53882599 0.57178801 0.219266
0.53882599 0.57178801 0.20091701
0.55343997 0.55717498 0.191743
0.53882599 0.57178801 0.191743
0.46117401 0.46490899 0.27431199
0.43717799 0.49793699 0.27431199
0.479588 0.45552701 0.28348601
0.46117401 0.57178801 0.27431199
0.52041203 0.45552701 0.27431199
0.5 0.45229301 0.27431199
0.48866001 0.32514101 0.52109301
0.479588 0.45552701 0.265138
0.479588 0.45552701 0.27431199
0.49096701 0.286421 0.86939102
0.49231601 0.289069 0.86939102
0.47328001 0.49893501 0.89114898
0.490502 0.28348601 0.86939102
0.48165101 0.28348601 0.86572498
0.47900701 0.29873899 0.85989398
0.46221301 0.49089399 0.88065302
0.48254901 0.28915599 0.86572498
0.55343997 0.55717498 0.48532099
0.53882599 0.57178801 0.494495
0.55343997 0.55717498 0.50366998
0.56282198 0.53876102 0.494495
0.55343997 0.55717498 0.494495
0.46117401 0.57178801 0.67798197
0.53882599 0.57178801 0.75137597
0.566055 0.51834899 0.74220198
0.52041203 0.45552701 0.75137597
0.56282198 0.49793601 0.75137597
0.53669697 0.28348601 0.74587202
0.53669697 0.28348601 0.75321102
0.566055 0.51834899 0.75137597
0.52157003 0.31742501 0.65125102
0.52157003 0.31506899 0.66309702
0.53882599 0.46490899 0.67798197
0.52041203 0.45552701 0.66880703
0.53882599 0.46490899 0.65963298
0.46977499 0.72633499 0.85229403
0.466288 0.727467 0.84344202
0.466288 0.70556003 0.84344202
0.463303 0.71651399 0.83394498
0.43717799 0.53876102 0.83394498
0.46509901 0.70517403 0.83394498
0.46509901 0.72785401 0.83394498
0.43931901 0.53806502 0.85104197
0.464553 0.71651399 0.84344202
0.5 0.32018301 0.71651399
0.48866001 0.31838799 0.72385299
0.5 0.45229301 0.72385299
0.5 0.45229301 0.714679
0.48866001 0.31838799 0.70917398
0.47843 0.31317499 0.71651399
0.479588 0.45552701 0.714679
0.479588 0.45552701 0.72385299
0.48866001 0.31838799 0.71651399
0.52041203 0.58117098 0.35688099
0.52041203 0.58117098 0.338532
0.44656 0.55717498 0.35688099
0.44656 0.55717498 0.384404
0.44656 0.55717498 0.39357799
0.46117401 0.57178801 0.384404
0.44656 0.55717498 0.375229
0.46117401 0.57178801 0.39357799
0.44656 0.55717498 0.40275201
0.44656 0.55717498 0.421101
0.44656 0.55717498 0.41192701
0.46509901 0.68996698 0.65785301
0.47031099 0.67906499 0.63252801
0.46117401 0.57178801 0.40275201
0.44656 0.55717498 0.43027499
0.44656 0.55717498 0.43944901
0.566055 0.51834899 0.62293601
0.51134002 0.31838799 0.70183498
0.52041203 0.45552701 0.69633001
0.52157003 0.31317499 0.69449502
0.5 0.45229301 0.68715602
0.52041203 0.45552701 0.68715602
0.51134002 0.31838799 0.68715602
0.5 0.32018301 0.69449502
0.5 0.45229301 0.69633001
0.51134002 0.31838799 0.69449502
0.43717799 0.53876102 0.67798197
0.46509901 0.68521398 0.68978
0.46509901 0.69765401 0.66760403
0.47031099 0.70592999 0.66159302
0.47843 0.66446102 0.69172102
0.47843 0.66956902 0.69936502
0.47031099 0.67649102 0.69512302
0.43717799 0.53876102 0.66880703
0.43717799 0.53876102 0.65963298
0.43717799 0.53876102 0.65045899
0.43717799 0.53876102 0.641285
0.43717799 0.53876102 0.63211
0.43717799 0.53876102 0.62293601
0.43717799 0.53876102 0.61376101
0.43717799 0.53876102 0.60458702
0.433945 0.51834899 0.62293601
0.43717799 0.49793699 0.61376101
0.479588 0.45552701 0.62293601
0.46117401 0.57178801 0.43027499
0.55343997 0.55717498 0.806422
0.55343997 0.55717498 0.79724801
0.53882599 0.57178801 0.79724801
0.52968901 0.69494301 0.79724801
0.53490102 0.70517403 0.80458701
0.52968901 0.69494301 0.81192702
0.52157003 0.68682498 0.80458701
0.52968901 0.69494301 0.80458701
0.53882599 0.57178801 0.384404
0.52968901 0.68877202 0.64150101
0.55343997 0.55717498 0.375229
0.55343997 0.55717498 0.384404
0.56282198 0.53876102 0.24678899
0.56282198 0.53876102 0.22844
0.566055 0.51834899 0.237615
0.56282198 0.53876102 0.237615
0.566055 0.51834899 0.56788999
0.53882599 0.46490899 0.56788999
0.55343997 0.47952199 0.56788999
0.56282198 0.49793601 0.56788999
0.46117401 0.57178801 0.806422
0.47843 0.68682498 0.80458701
0.47031099 0.69494402 0.81192702
0.47843 0.25379801 0.76055002
0.47031099 0.26191601 0.75321102
0.47031099 0.26191601 0.76055002
0.55343997 0.55717498 0.76972502
0.53490102 0.70517403 0.77522898
0.566055 0.51834899 0.76972502
0.53882599 0.57178801 0.76972502
0.56282198 0.53876102 0.77889901
0.53669697 0.71651399 0.77522898
0.47843 0.33583799 0.60679603
0.52157003 0.285211 0.575773
0.46117401 0.46490899 0.1
0.47031099 0.284266 0.59406197
0.47031099 0.292133 0.580015
0.47843 0.29451001 0.56185299
0.47031099 0.30107799 0.56662798
0.479588 0.45552701 0.1
0.48866001 0.28076601 0.57304901
0.5 0.27923501 0.57211
0.48866001 0.27238801 0.58801103
0.47843 0.285211 0.575773
0.52968901 0.598957 0.63879299
0.52157003 0.59706098 0.64668602
0.52968901 0.608419 0.64146101
0.53490102 0.61158103 0.63173199
0.55343997 0.55717498 0.63211
0.55343997 0.55717498 0.641285
0.52157003 0.60591102 0.64918202
0.53882599 0.57178801 0.65045899
0.52968901 0.58931297 0.63687301
0.52157003 0.61092299 0.58895099
0.53490102 0.601345 0.62884402
0.53882599 0.46490899 0.68715602
0.52157003 0.313649 0.67509001
0.52968901 0.30505601 0.68715602
0.53490102 0.294826 0.68715602
0.5 0.32018301 0.68715602
0.51134002 0.318845 0.675497
0.52157003 0.31317499 0.68715602
0.44656 0.55717498 0.54036701
0.46509901 0.630238 0.61445898
0.47031099 0.63415301 0.60500598
0.46509901 0.61858898 0.61016101
0.47031099 0.62175 0.60043299
0.46117401 0.57178801 0.549541
0.44656 0.55717498 0.558716
0.44656 0.55717498 0.549541
0.43717799 0.49793699 0.265138
0.43717799 0.49793699 0.255963
0.43717799 0.49793699 0.28348601
0.43717799 0.49793699 0.29266101
0.43717799 0.49793699 0.301835
0.43717799 0.49793699 0.17339499
0.43717799 0.49793699 0.182569
0.43717799 0.49793699 0.1
0.47031099 0.27752501 0.60868299
0.43717799 0.49793699 0.109174
0.43717799 0.49793699 0.12752301
0.43717799 0.49793699 0.118349
0.43717799 0.49793699 0.155046
0.43717799 0.49793699 0.145872
0.43717799 0.49793699 0.191743
0.47031099 0.271952 0.62379098
0.51134002 0.338608 0.51047701
0.5 0.38069201 0.56840003
0.5 0.45229301 0.60458702
0.5 0.37164101 0.57553798
0.5 0.45229301 0.61376101
0.5 0.44969699 0.46765101
0.479588 0.45552701 0.53119302
0.52157003 0.43362501 0.47660601
0.51134002 0.41599101 0.47480401
0.5 0.41557199 0.473057
0.51134002 0.432809 0.471457
0.5 0.45229301 0.44862401
0.5 0.45229301 0.457798
0.48866001 0.44983801 0.46944201
0.479588 0.45552701 0.476147
0.5 0.45229301 0.43944901
0.5 0.43252799 0.469684
0.5 0.59842801 0.57932502
0.48866001 0.59814799 0.58109701
0.5 0.61255902 0.58213598
0.5 0.58440399 0.558716
0.5 0.58440399 0.549541
0.479588 0.58117098 0.549541
0.5 0.58440399 0.54036701
0.48866001 0.62586999 0.58775401
0.5 0.62642503 0.58604401
0.47843 0.61092299 0.58895099
0.47843 0.624259 0.59271199
0.47843 0.597332 0.58624601
0.479588 0.58117098 0.558716
0.479588 0.58117098 0.54036701
0.48866001 0.61213899 0.58387899
0.433945 0.51834899 0.641285
0.46117401 0.57178801 0.155046
0.46117401 0.46490899 0.63211
0.46117401 0.46490899 0.65045899
0.479588 0.45552701 0.641285
0.47031099 0.32891601 0.60255402
0.46117401 0.46490899 0.641285
0.47031099 0.69494402 0.78256899
0.47843 0.68682498 0.78256899
0.53490102 0.70517403 0.78256899
0.43717799 0.53876102 0.788073
0.46509901 0.70517403 0.78256899
0.5 0.58440399 0.43027499
0.52041203 0.58117098 0.43027499
0.5 0.58440399 0.43944901
0.52041203 0.58117098 0.43944901
0.52157003 0.68433797 0.62635601
0.52041203 0.58117098 0.421101
0.479588 0.45552701 0.549541
0.47843 0.45490599 0.533831
0.48866001 0.44372901 0.54040003
0.5 0.45229301 0.54036701
0.46117401 0.57178801 0.54036701
0.479588 0.45552701 0.54036701
0.53490102 0.69854403 0.71869397
0.51134002 0.673096 0.71773201
0.53490102 0.69486302 0.70871598
0.52968901 0.69148397 0.731318
0.52968901 0.688815 0.72185701
0.53882599 0.57178801 0.74220198
0.53882599 0.57178801 0.73302799
0.52157003 0.67791098 0.71573901
0.52968901 0.68541199 0.71263099
0.51134002 0.67613602 0.72597402
0.52041203 0.58117098 0.74220198
0.52157003 0.68109399 0.72436303
0.47843 0.31317499 0.81192702
0.479588 0.45552701 0.81559598
0.48866001 0.31838799 0.81192702
0.48866001 0.31838799 0.80458701
0.47843 0.31317499 0.80458701
0.479588 0.45552701 0.79724801
0.43717799 0.49793699 0.806422
0.46117401 0.46490899 0.806422
0.56282198 0.53876102 0.219266
0.566055 0.51834899 0.22844
0.46509901 0.27214599 0.70917398
0.47843 0.25379801 0.70917398
0.46509901 0.294826 0.70917398
0.53882599 0.46490899 0.457798
0.52968901 0.43489501 0.484624
0.52157003 0.41720799 0.47987199
0.5 0.45229301 0.74220198
0.51134002 0.31838799 0.73853201
0.51134002 0.31838799 0.74587202
0.52157003 0.31317499 0.74587202
0.52041203 0.45552701 0.73302799
0.56282198 0.49793601 0.74220198
